802523.562  192134.957  3086.857  21
802458.089  192049.957  3054.172  22
802422.876  191944.819  3030.869  22
802377.734  191878.234  3017.410  22
802303.844  191821.592  3003.625  22
802248.552  191797.780  3000.073  22
802194.891  191769.709  2996.468  22
802152.813  191734.305  2994.997  22
802122.409  191704.230  2995.974  22
802104.090  191672.478  2998.333  22
802082.812  191639.573  3003.053  22
802065.484  191597.946  3009.971  22
802073.207  191565.768  3014.946  22
802089.155  191544.501  3016.934  22
802101.424  191530.078  3011.436  22
802070.653  191516.583  3013.541  22
802049.303  191502.790  3016.609  22
802052.562  191475.292  3035.194  22
802020.365  191460.063  3023.368  22
802003.170  191457.796  3019.574  22
801982.577  191451.417  3020.728  22
801964.080  191445.864  3026.161  22
801955.256  191439.023  3034.321  22
801948.781  191431.005  3045.392  22
801934.925  191442.450  3037.135  22
801914.715  191450.745  3036.020  22
801902.365  191461.710  3031.030  22
801890.852  191462.340  3030.587  22
801886.840  191450.286  3039.131  22
801877.479  191442.573  3046.026  22
801859.796  191440.300  3047.527  22
801835.834  191449.903  3039.457  22
801824.666  191461.513  3031.075  22
801810.657  191467.088  3025.464  22
801789.011  191469.160  3023.958  22
801768.228  191472.832  3023.708  22
801747.635  191477.534  3020.941  22
801731.634  191481.616  3015.085  22
801717.184  191480.471  3016.821  22
801690.967  191471.514  3027.893  22
801670.701  191474.080  3032.243  22
801658.483  191481.356  3029.368  22
801643.869  191492.705  3024.897  22
801639.073  191505.362  3016.435  22
801633.690  191517.930  3009.520  22
801623.147  191526.062  3006.748  22
801604.017  191546.056  2996.985  22
801590.569  191557.549  2988.145  22
801567.853  191570.754  2982.449  22
801549.836  191580.015  2978.806  22
801536.189  191589.751  2973.467  22
801518.381  191595.712  2969.537  22
801505.051  191600.414  2964.190  22
801481.775  191604.837  2958.823  22
801460.355  191608.827  2953.246  22
801431.038  191607.725  2948.630  22
801411.404  191599.960  2946.008  22
801385.810  191609.425  2938.158  22
801365.039  191624.473  2931.676  22
801344.592  191637.180  2924.839  22
801330.792  191652.127  2919.538  22
801314.155  191664.426  2913.364  22
801285.911  191680.284  2901.589  22
801267.414  191685.175  2894.206  22
801247.323  191686.360  2887.018  22
801227.789  191687.850  2880.101  22
801212.070  191697.988  2873.459  22
801191.616  191699.786  2864.248  22
801177.804  191705.265  2857.660  22
801157.019  191717.847  2847.952  22
801144.930  191722.821  2841.696  22
801129.133  191726.581  2833.298  22
801120.103  191727.381  2826.611  22
801125.911  191746.057  2828.852  22
801129.258  191758.587  2832.334  22
801123.311  191769.112  2828.942  22
801117.102  191785.049  2827.535  22
801100.675  191790.548  2819.566  22
801083.519  191788.475  2811.114  22
801067.409  191787.349  2802.255  22
801052.280  191775.360  2792.847  22
801030.955  191780.820  2786.250  22
801007.118  191783.461  2780.650  22
800978.136  191790.440  2773.513  22
800961.839  191779.307  2766.314  22
800936.472  191775.783  2759.981  22
800901.634  191776.157  2748.206  22
800879.447  191787.925  2744.682  22
800890.329  191814.408  2749.435  22
800914.625  191806.913  2755.902  22
800935.362  191823.440  2766.339  22
800968.484  191826.639  2777.271  22
800959.646  191839.888  2778.674  22
800943.691  191860.519  2782.956  22
800927.147  191885.090  2785.337  22
800904.006  191907.036  2786.136  22
800879.909  191926.007  2783.388  22
800854.674  191942.999  2779.201  22
800829.929  191955.368  2775.276  22
800804.444  191953.045  2773.138  22
800792.396  191937.031  2773.192  22
800794.297  191922.126  2774.565  22
800807.638  191895.462  2784.776  22
800797.378  191885.849  2784.987  22
800770.268  191898.346  2785.018  22
800741.678  191910.924  2788.748  22
800720.653  191911.359  2791.214  22
800702.187  191927.391  2786.989  22
800654.793  191915.215  2789.999  22
800605.455  191919.875  2784.402  22
800582.588  191927.493  2779.452  22
800586.075  191965.690  2772.174  22
800621.137  191959.346  2776.117  22
800616.361  192002.309  2767.844  22
800601.238  192043.654  2761.774  22
800556.333  192078.740  2757.016  22
800525.332  192095.556  2753.914  22
800486.608  192121.445  2744.391  22
800428.747  192137.453  2732.193  22
800409.638  192134.478  2729.988  22
800436.071  192108.586  2737.432  22
800435.578  192083.859  2741.878  22
800397.972  192100.345  2736.274  22
800362.146  192122.596  2725.038  22
800335.748  192152.011  2716.673  22
800349.991  192187.735  2713.407  22
800386.455  192194.394  2719.607  22
800398.380  192219.446  2720.216  22
800423.693  192225.411  2722.650  22
800433.665  192233.666  2721.767  22
800429.566  192245.284  2719.497  22
800408.902  192261.073  2715.299  22
800389.781  192270.354  2711.615  22
800362.912  192267.932  2710.481  22
800343.394  192260.893  2708.574  22
800343.417  192245.083  2711.974  22
800331.123  192244.704  2711.868  22
800321.448  192262.364  2707.608  22
800322.787  192278.693  2703.578  22
800323.620  192301.417  2697.405  22
800339.440  192306.703  2697.947  22
800343.263  192321.214  2693.737  22
800331.443  192335.703  2687.600  22
800315.485  192345.248  2682.846  22
800295.096  192346.708  2680.282  22
800272.637  192354.858  2675.246  22
800256.015  192366.694  2669.761  22
800242.810  192371.463  2666.362  22
800229.281  192371.953  2663.231  22
800211.262  192362.893  2666.194  22
800194.768  192367.473  2660.510  22
800177.279  192380.460  2649.563  22
800162.341  192392.152  2640.493  22
800149.237  192402.602  2630.366  22
800136.944  192407.766  2625.628  22
800123.441  192416.253  2617.756  22
800145.434  192432.037  2616.466  22
800163.328  192429.373  2620.754  22
800198.415  192434.127  2625.918  22
800217.419  192417.892  2638.602  22
800239.008  192406.440  2649.181  22
800256.693  192411.620  2649.945  22
800239.218  192433.171  2636.515  22
800250.343  192436.034  2637.121  22
800275.399  192426.557  2644.817  22
800290.497  192429.078  2643.707  22
800311.843  192421.891  2649.134  22
800317.776  192422.786  2646.700  22
800303.188  192433.543  2640.939  22
800286.477  192441.197  2633.629  22
800268.464  192446.641  2628.085  22
800245.068  192450.476  2624.247  22
800231.442  192457.348  2621.499  22
800218.584  192464.396  2614.471  22
800207.616  192469.226  2609.738  22
800195.454  192475.665  2602.472  22
800164.245  192470.204  2595.144  22
800142.241  192472.276  2588.987  22
800122.535  192472.116  2583.838  22
800103.984  192468.575  2582.005  22
800085.336  192464.293  2577.380  22
800071.393  192461.924  2573.528  22
800048.564  192465.283  2565.964  22
800004.800  192464.071  2551.170  22
799989.755  192444.923  2550.558  22
799985.213  192416.334  2558.748  22
799941.506  192396.745  2560.668  22
799904.318  192422.010  2540.288  22
799867.284  192431.217  2526.239  22
799836.460  192432.448  2515.102  22
799825.031  192435.542  2510.836  22
799808.740  192436.583  2505.787  22
799798.224  192439.527  2501.173  22
799808.713  192445.931  2502.225  22
799815.704  192458.469  2505.848  22
799820.501  192466.180  2506.092  22
799818.491  192480.367  2507.144  22
799816.662  192488.015  2509.324  22
799812.253  192495.219  2510.003  22
799808.715  192503.056  2510.355  22
799801.198  192510.054  2510.939  22
799791.354  192520.532  2509.882  22
799782.470  192527.670  2509.177  22
799772.747  192534.220  2509.138  22
799763.822  192540.676  2508.682  22
799752.511  192544.090  2508.873  22
799745.066  192549.374  2508.394  22
799740.752  192556.887  2508.266  22
799740.590  192563.119  2509.490  22
799741.176  192568.914  2509.418  22
799730.219  192573.778  2507.162  22
799717.045  192577.185  2502.818  22
799704.440  192583.591  2497.373  22
799701.569  192592.125  2495.896  22
799705.989  192598.164  2500.470  22
799696.654  192607.734  2498.031  22
799683.827  192613.420  2493.896  22
799665.106  192619.007  2487.088  22
799654.768  192624.112  2483.008  22
799648.648  192630.097  2484.658  22
799632.216  192636.462  2481.048  22
799618.536  192640.664  2476.508  22
799607.894  192645.149  2474.502  22
799598.819  192653.191  2473.857  22
799585.749  192661.132  2472.838  22
799573.912  192668.260  2471.187  22
799562.455  192675.157  2469.737  22
799553.352  192679.394  2467.567  22
799541.982  192681.341  2463.928  22
799535.031  192689.931  2464.477  22
799528.445  192698.971  2465.696  22
799522.402  192705.571  2465.713  22
799522.772  192712.917  2468.297  22
799531.532  192721.508  2474.523  22
799540.240  192731.392  2478.171  22
799536.327  192738.744  2483.011  22
799533.153  192743.556  2483.513  22
799539.664  192753.142  2482.663  22
799548.780  192760.026  2485.283  22
799554.621  192763.485  2486.738  22
799559.831  192769.770  2488.946  22
799560.985  192778.621  2489.975  22
799563.095  192782.349  2490.560  22
799558.773  192788.680  2490.876  22
799557.181  192796.368  2489.730  22
799551.919  192808.721  2489.099  22
799552.636  192818.835  2488.740  22
799554.514  192823.761  2488.964  22
799556.409  192837.082  2489.362  22
799556.088  192848.399  2489.303  22
799564.912  192851.051  2489.202  22
799579.402  192858.419  2491.625  22
799595.126  192862.419  2493.769  22
799618.095  192866.514  2495.805  22
799636.383  192869.084  2498.318  22
799666.723  192870.209  2501.034  22
799687.507  192873.983  2502.391  22
799709.908  192873.499  2505.900  22
799730.122  192872.750  2508.417  22
799747.180  192874.497  2510.110  22
799765.525  192877.613  2512.996  22
799774.284  192879.627  2514.493  22
799791.082  192876.700  2520.987  22
799803.753  192874.952  2525.289  22
799814.916  192877.691  2529.194  22
799824.908  192881.937  2532.196  22
799832.835  192888.135  2534.761  22
799840.010  192905.652  2538.634  22
799832.616  192918.343  2539.319  22
799830.581  192925.021  2539.123  22
799818.601  192926.819  2541.889  22
799830.140  192936.620  2539.323  22
799837.022  192943.817  2539.361  22
799846.375  192952.319  2539.987  22
799851.025  192957.762  2540.047  22
799859.977  192963.325  2539.576  22
799862.796  192968.317  2538.666  22
799871.029  192973.557  2537.555  22
799877.446  192973.100  2537.882  22
799885.508  192978.336  2537.551  22
799891.996  192986.932  2538.452  22
799896.752  193000.817  2539.689  22
799898.286  193008.950  2540.486  22
799903.524  193017.030  2542.581  22
799915.412  193024.919  2545.998  22
799929.014  193031.359  2548.374  22
799944.650  193037.753  2550.466  22
799957.886  193042.765  2554.084  22
799979.058  193050.533  2560.062  22
799995.279  193054.624  2564.898  22
800010.103  193058.206  2568.222  22
800033.922  193063.411  2569.844  22
800056.343  193070.174  2570.812  22
800079.982  193078.384  2572.892  22
800103.210  193087.153  2572.461  22
800125.072  193095.028  2571.364  22
800132.083  193107.691  2572.391  22
800123.639  193124.652  2571.644  22
800150.890  193129.286  2570.691  22
800175.143  193129.810  2568.933  22
800205.044  193121.544  2571.235  22
800223.047  193117.587  2569.665  22
800249.736  193107.193  2574.069  22
800279.536  193104.502  2580.076  22
800303.889  193103.096  2584.053  22
800323.922  193102.854  2587.863  22
800349.796  193103.516  2593.156  22
800370.164  193105.576  2597.064  22
800385.493  193106.898  2600.375  22
800395.796  193105.881  2601.366  22
800423.021  193094.908  2608.027  22
800445.796  193093.444  2612.351  22
800469.130  193091.357  2614.528  22
800487.523  193091.828  2615.837  22
800501.606  193097.574  2617.255  22
800522.304  193096.507  2619.137  22
800540.661  193095.034  2620.866  22
800561.610  193092.893  2622.802  22
800578.837  193095.734  2623.839  22
800595.009  193097.961  2625.242  22
800610.347  193100.896  2626.889  22
800630.212  193105.648  2629.376  22
800639.715  193112.995  2634.357  22
800653.543  193123.518  2637.536  22
800670.657  193131.899  2640.032  22
800693.404  193133.752  2645.180  22
800720.258  193133.266  2649.660  22
800743.601  193135.892  2653.142  22
800775.356  193134.176  2658.757  22
800803.474  193133.526  2665.721  22
800827.294  193126.986  2668.102  22
800923.053  193099.984  2681.347  22
800947.562  193090.682  2684.829  22
800973.431  193078.625  2688.613  22
800996.794  193064.044  2691.043  22
801026.638  193049.998  2700.748  22
801053.313  193039.985  2707.591  22
801077.574  193027.383  2714.696  22
801098.824  193021.317  2718.699  22
801123.544  193015.814  2723.480  22
801148.970  193005.016  2726.946  22
801174.272  192996.599  2728.749  22
801180.018  192980.817  2723.343  22
801197.791  192967.532  2723.406  22
801215.092  192964.966  2724.112  22
801236.807  192964.590  2729.188  22
801253.574  192966.085  2739.049  22
801264.754  192974.032  2744.449  22
801274.520  192984.619  2749.285  22
801279.753  193010.658  2762.000  22
801300.758  193022.630  2767.148  22
801330.332  193025.111  2774.377  22
801364.457  193020.009  2779.164  22
801399.377  193020.574  2787.852  22
801419.185  193024.619  2792.872  22
801450.223  193021.838  2796.522  22
801478.225  193029.351  2803.440  22
801504.961  193032.183  2807.607  22
801524.375  193037.716  2814.031  22
801543.288  193046.926  2822.559  22
801553.351  193067.174  2832.676  22
801563.290  193087.815  2845.699  22
801578.688  193092.349  2851.605  22
801592.940  193089.186  2850.105  22
801602.715  193103.089  2860.257  22
801615.227  193106.076  2867.759  22
801625.561  193111.410  2872.719  22
801638.591  193121.816  2880.277  22
801652.510  193124.866  2881.132  22
801670.747  193128.617  2882.916  22
801682.113  193134.820  2891.056  22
801695.654  193134.702  2892.294  22
801715.848  193136.737  2895.396  22
801733.389  193145.068  2900.925  22
801749.071  193159.342  2911.807  22
801754.199  193168.855  2917.876  22
801757.082  193194.442  2935.957  22
801772.505  193210.276  2948.014  22
801793.451  193219.509  2952.076  22
801811.492  193228.626  2958.365  22
801820.421  193234.647  2963.383  22
801822.004  193250.294  2979.269  22
801824.258  193278.453  2993.503  22
801835.049  193282.073  2995.417  22
801846.211  193295.107  3007.161  22
801858.904  193303.403  3015.462  22
801869.895  193284.067  3003.829  22
801881.080  193282.112  3002.339  22
801890.704  193266.996  2991.066  22
801900.573  193254.430  2984.405  22
801915.707  193244.512  2985.006  22
801926.772  193230.629  2987.595  22
801953.903  193221.003  3002.668  22
801962.302  193217.958  3007.589  22
801977.384  193214.318  3017.127  22
801988.589  193207.219  3024.466  22
801970.781  193195.031  3011.623  22
801952.970  193190.270  2995.266  22
801938.202  193190.365  2982.659  22
801933.278  193176.008  2973.096  22
801936.144  193157.646  2965.062  22
801935.285  193144.517  2962.725  22
801923.508  193138.007  2954.134  22
801927.208  193119.863  2951.108  22
801928.880  193107.225  2949.113  22
801933.178  193095.275  2950.865  22
801938.292  193084.653  2950.549  22
801955.113  193076.531  2961.118  22
801944.344  193072.548  2955.698  22
801930.088  193075.882  2943.808  22
801923.886  193074.288  2939.191  22
801931.629  193055.314  2941.227  22
801919.887  193049.600  2931.023  22
801915.863  193043.241  2928.735  22
801914.861  193033.606  2926.742  22
801903.059  193025.959  2919.399  22
801888.988  193021.043  2909.900  22
801881.444  193015.879  2904.352  22
801883.943  193006.160  2902.378  22
801887.223  192997.724  2901.470  22
801890.645  192988.702  2899.979  22
801888.278  192980.322  2897.088  22
801889.464  192965.582  2891.951  22
801891.519  192955.078  2889.518  22
801909.798  192955.310  2898.621  22
801908.813  192935.750  2893.615  22
801881.621  192923.661  2873.511  22
801868.049  192909.480  2863.347  22
801877.437  192886.953  2854.684  22
801875.108  192876.031  2850.561  22
801909.958  192857.209  2855.761  22
801926.091  192858.653  2861.962  22
801943.629  192865.052  2869.185  22
801957.951  192872.350  2880.478  22
801964.783  192882.661  2888.007  22
801974.233  192870.072  2885.597  22
801978.213  192851.674  2880.956  22
801987.625  192844.910  2883.229  22
801988.985  192823.554  2874.975  22
801993.908  192811.189  2873.068  22
802003.858  192800.250  2873.703  22
802016.682  192779.535  2884.467  22
802032.245  192781.450  2894.026  22
802046.260  192782.653  2903.597  22
802050.157  192761.935  2900.052  22
802055.608  192740.092  2895.940  22
802058.142  192719.394  2890.907  22
802054.246  192699.138  2884.734  22
802045.593  192680.020  2876.447  22
802040.058  192669.223  2872.525  22
802053.862  192646.787  2878.127  22
802063.472  192634.975  2881.627  22
802071.661  192624.043  2887.434  22
802086.724  192621.084  2896.000  22
802099.720  192608.005  2900.962  22
802111.248  192595.464  2904.386  22
802125.944  192583.727  2907.673  22
802137.865  192577.818  2912.311  22
802147.594  192558.094  2909.276  22
802152.236  192542.440  2908.798  22
802160.719  192524.237  2914.280  22
802171.848  192508.891  2925.408  22
802177.311  192497.133  2931.138  22
802190.990  192486.435  2941.109  22
802189.685  192473.010  2942.413  22
802203.889  192456.172  2956.176  22
802204.128  192439.542  2960.863  22
802190.170  192424.521  2958.707  22
802178.634  192409.819  2961.431  22
802168.499  192399.438  2960.505  22
802150.617  192393.142  2952.161  22
802130.804  192387.654  2942.342  22
802102.030  192387.444  2928.767  22
802077.422  192385.263  2918.907  22
802060.810  192380.251  2914.848  22
802031.979  192375.202  2904.872  22
802016.733  192348.608  2919.718  22
802002.472  192346.843  2914.994  22
802018.421  192336.462  2935.510  22
802034.359  192337.002  2942.930  22
802050.235  192330.392  2956.174  22
802066.285  192323.992  2966.454  22
802085.495  192320.764  2976.308  22
802101.752  192315.895  2985.298  22
802116.108  192309.843  2994.466  22
802140.997  192299.126  3010.179  22
802153.309  192291.728  3019.567  22
802159.088  192277.958  3025.660  22
802153.131  192262.470  3025.063  22
802139.114  192258.783  3014.196  22
802121.118  192249.714  3002.344  22
802108.256  192243.591  2994.017  22
802090.130  192236.562  2984.081  22
802070.917  192228.131  2975.757  22
802069.864  192223.911  2975.039  22
802078.992  192216.569  2974.407  22
802113.847  192195.119  2975.963  22
802147.832  192186.184  2980.975  22
802178.419  192184.536  2987.177  22
802206.589  192188.165  2994.315  22
802230.344  192196.385  3003.366  22
802260.483  192207.858  3015.484  22
802281.399  192224.248  3028.952  22
802285.133  192249.430  3043.696  22
802311.176  192243.277  3050.744  22
802345.674  192223.223  3055.991  22
802372.912  192198.976  3058.376  22
802398.833  192192.410  3063.787  22
802422.121  192176.884  3068.542  22
802451.955  192170.254  3075.543  22
802477.088  192163.489  3081.110  22
802488.319  192155.848  3081.496  22
802495.577  192143.608  3078.282  22
802523.562  192134.957  3086.857  23
