802523.352  192133.077  3081.201  21
802492.552  192093.679  3063.171  22
802457.360  192050.294  3050.884  22
802397.177  191910.683  3020.011  22
802377.573  191875.862  3012.811  22
802330.119  191846.322  3005.648  22
802318.600  191835.805  3004.031  22
802213.047  191784.292  2993.188  22
802185.265  191759.877  2992.039  22
802155.989  191729.431  2990.940  22
802114.336  191691.052  2993.818  22
802084.719  191643.700  2999.869  22
802084.719  191643.700  2999.955  22
802064.721  191599.486  3007.328  22
802086.122  191548.002  3016.763  22
802101.643  191529.196  3011.537  22
802078.747  191523.160  3012.858  22
802029.880  191487.277  3016.065  22
802012.483  191479.865  3013.238  22
801974.383  191463.146  3015.632  22
801954.651  191456.380  3024.470  22
801945.245  191445.496  3031.422  22
801933.492  191448.723  3033.724  22
801919.434  191458.345  3030.141  22
801905.211  191463.247  3028.494  22
801891.205  191462.606  3029.249  22
801889.400  191449.542  3040.125  22
801876.737  191439.262  3048.224  22
801851.634  191440.574  3047.055  22
801835.357  191450.234  3039.353  22
801823.707  191462.507  3027.492  22
801778.830  191471.956  3020.981  22
801749.657  191479.581  3015.587  22
801735.738  191480.987  3015.507  22
801715.296  191480.415  3018.414  22
801702.436  191473.804  3024.252  22
801682.912  191472.210  3030.752  22
801667.355  191474.817  3034.248  22
801660.092  191481.609  3027.491  22
801644.207  191492.570  3025.244  22
801622.033  191501.632  3023.674  22
801628.865  191521.954  3003.987  22
801616.540  191535.844  2997.284  22
801591.201  191555.416  2988.661  22
801577.173  191566.506  2983.770  22
801562.986  191576.533  2977.474  22
801542.025  191588.733  2971.087  22
801522.598  191596.576  2965.200  22
801508.007  191603.568  2959.014  22
801483.668  191607.826  2952.964  22
801458.043  191613.897  2947.194  22
801436.358  191608.640  2946.788  22
801398.037  191604.571  2942.005  22
801371.627  191613.852  2935.378  22
801348.628  191630.856  2927.538  22
801329.550  191649.326  2920.701  22
801316.661  191661.945  2915.019  22
801280.759  191681.820  2897.656  22
801263.327  191687.233  2891.357  22
801250.109  191693.006  2885.003  22
801236.004  191694.316  2880.017  22
801219.503  191697.537  2874.329  22
801206.853  191701.364  2868.915  22
801198.472  191711.861  2861.780  22
801187.787  191714.616  2857.274  22
801177.300  191723.403  2850.621  22
801171.065  191737.518  2847.291  22
801157.199  191750.891  2840.572  22
801145.587  191758.275  2836.783  22
801142.001  191768.842  2835.542  22
801134.370  191780.629  2832.926  22
801120.855  191790.569  2827.388  22
801105.550  191801.395  2821.210  22
801088.602  191808.235  2811.015  22
801076.405  191813.473  2808.720  22
801064.158  191814.836  2802.333  22
801047.457  191809.431  2790.068  22
801031.018  191804.358  2785.184  22
801019.956  191805.937  2781.683  22
801025.796  191814.516  2783.966  22
801019.601  191820.836  2782.452  22
801004.636  191826.417  2780.391  22
800989.275  191833.837  2779.285  22
800977.144  191845.667  2780.000  22
800984.329  191861.104  2788.290  22
800978.383  191871.676  2789.373  22
800962.145  191879.273  2786.733  22
800937.105  191894.521  2784.924  22
800928.173  191909.449  2785.305  22
800914.153  191926.866  2785.725  22
800903.735  191947.589  2785.081  22
800881.125  191952.226  2777.552  22
800859.592  191949.909  2776.339  22
800834.281  191956.124  2773.884  22
800818.089  191958.296  2772.024  22
800801.448  191953.662  2771.536  22
800795.263  191945.222  2771.970  22
800794.465  191933.876  2772.260  22
800794.806  191923.732  2774.626  22
800798.526  191909.848  2777.606  22
800806.157  191898.128  2782.839  22
800809.188  191892.068  2785.501  22
800798.159  191885.517  2785.555  22
800779.307  191896.836  2782.303  22
800770.066  191908.608  2777.308  22
800731.001  191918.137  2786.887  22
800713.913  191927.112  2784.386  22
800712.918  191942.566  2777.565  22
800701.024  191958.424  2775.441  22
800692.905  191979.301  2767.495  22
800684.127  191992.506  2764.532  22
800672.156  192003.535  2762.158  22
800658.257  192011.203  2761.042  22
800643.386  192021.438  2759.653  22
800632.626  192036.357  2755.488  22
800616.217  192051.036  2755.020  22
800595.674  192064.342  2753.168  22
800581.457  192072.829  2749.750  22
800572.305  192085.400  2748.873  22
800556.118  192099.366  2747.200  22
800549.524  192097.039  2749.097  22
800542.350  192091.791  2752.096  22
800529.622  192098.896  2750.139  22
800519.201  192101.967  2749.836  22
800506.110  192109.828  2747.054  22
800495.408  192121.296  2742.694  22
800479.658  192127.463  2739.460  22
800462.615  192127.520  2737.738  22
800444.845  192136.883  2732.996  22
800420.519  192153.277  2724.967  22
800406.891  192165.560  2720.572  22
800386.505  192169.216  2717.508  22
800370.357  192169.671  2716.148  22
800365.014  192173.313  2713.279  22
800367.146  192180.819  2712.572  22
800381.921  192184.499  2714.942  22
800399.865  192191.885  2717.812  22
800405.251  192207.021  2718.291  22
800410.268  192218.320  2718.254  22
800426.717  192220.123  2719.546  22
800436.201  192225.414  2720.162  22
800445.482  192234.950  2718.899  22
800441.039  192247.222  2716.156  22
800439.852  192261.031  2711.526  22
800436.018  192264.289  2711.340  22
800417.750  192269.985  2708.489  22
800410.640  192271.893  2708.115  22
800395.835  192276.585  2707.575  22
800393.468  192285.927  2704.259  22
800395.149  192290.938  2702.520  22
800386.861  192300.329  2699.331  22
800386.889  192311.264  2695.142  22
800383.231  192319.167  2691.789  22
800363.771  192323.831  2690.432  22
800348.115  192325.814  2688.274  22
800340.265  192333.342  2685.849  22
800327.181  192343.937  2681.567  22
800316.747  192352.897  2676.049  22
800300.354  192357.969  2673.596  22
800284.135  192360.563  2671.228  22
800266.919  192367.847  2666.158  22
800226.262  192383.332  2654.361  22
800213.320  192376.435  2655.425  22
800207.510  192371.005  2658.222  22
800185.611  192376.980  2650.172  22
800174.296  192391.010  2639.769  22
800170.806  192396.668  2635.945  22
800155.801  192401.807  2632.045  22
800146.177  192410.289  2624.586  22
800143.597  192420.032  2618.172  22
800147.175  192428.982  2615.877  22
800164.280  192427.771  2619.301  22
800178.298  192425.745  2621.441  22
800174.228  192416.454  2624.124  22
800195.228  192406.597  2634.492  22
800207.343  192406.881  2637.026  22
800205.906  192417.668  2632.454  22
800214.539  192417.284  2634.552  22
800220.116  192411.868  2638.619  22
800243.083  192400.249  2648.855  22
800257.732  192400.974  2650.578  22
800267.644  192399.451  2651.806  22
800284.629  192402.845  2652.246  22
800297.525  192392.901  2657.674  22
800310.213  192384.312  2662.079  22
800327.887  192374.462  2669.296  22
800336.659  192375.299  2668.623  22
800340.804  192388.309  2663.162  22
800338.851  192402.739  2654.720  22
800340.268  192412.554  2646.452  22
800331.056  192425.608  2637.387  22
800317.944  192433.062  2632.478  22
800286.926  192443.080  2624.383  22
800265.937  192450.095  2621.644  22
800243.002  192455.638  2616.255  22
800222.647  192464.731  2612.352  22
800210.081  192473.979  2604.089  22
800196.687  192479.067  2596.561  22
800148.936  192475.420  2581.257  22
800134.922  192475.509  2578.155  22
800104.523  192474.938  2573.125  22
800082.454  192475.442  2565.452  22
800060.425  192474.978  2561.675  22
800049.410  192494.905  2550.232  22
800019.310  192491.248  2541.432  22
799997.609  192494.402  2538.163  22
799975.212  192497.897  2531.676  22
799955.538  192498.807  2521.634  22
799929.852  192489.392  2517.032  22
799917.344  192483.833  2515.129  22
799909.385  192470.927  2514.996  22
799920.177  192452.385  2524.027  22
799923.163  192444.480  2527.531  22
799945.468  192435.516  2536.074  22
799964.854  192425.273  2546.387  22
799939.827  192401.332  2554.558  22
799903.319  192424.251  2530.362  22
799885.312  192434.952  2522.593  22
799863.342  192452.048  2513.588  22
799862.768  192461.514  2510.040  22
799882.331  192473.879  2510.471  22
799867.443  192474.570  2509.931  22
799851.338  192488.381  2507.022  22
799840.459  192504.860  2508.856  22
799822.252  192520.835  2508.956  22
799807.032  192534.248  2507.335  22
799787.964  192547.310  2506.238  22
799770.777  192561.297  2505.759  22
799770.553  192568.102  2507.124  22
799756.515  192578.702  2506.382  22
799738.563  192587.889  2503.604  22
799724.140  192599.511  2500.388  22
799708.068  192612.667  2498.427  22
799685.975  192624.277  2490.314  22
799663.233  192635.620  2481.891  22
799648.380  192650.573  2478.718  22
799631.007  192663.868  2475.372  22
799608.060  192674.112  2470.945  22
799592.389  192683.249  2470.396  22
799579.254  192694.607  2467.779  22
799566.587  192712.585  2468.684  22
799557.891  192748.427  2478.472  22
799567.172  192763.382  2485.854  22
799575.628  192769.788  2485.184  22
799567.216  192781.488  2489.555  22
799563.259  192788.914  2489.451  22
799571.593  192801.190  2485.792  22
799582.972  192808.124  2483.660  22
799585.418  192818.607  2481.537  22
799588.180  192825.753  2482.688  22
799601.856  192834.638  2482.722  22
799618.847  192843.435  2485.237  22
799623.005  192849.270  2487.729  22
799641.150  192853.005  2489.941  22
799683.634  192859.501  2493.943  22
799707.483  192862.790  2495.925  22
799731.625  192863.013  2500.365  22
799754.538  192866.265  2502.652  22
799782.705  192870.178  2506.886  22
799799.604  192864.381  2513.378  22
799816.284  192864.480  2518.943  22
799833.665  192868.950  2523.509  22
799849.402  192879.447  2527.867  22
799858.151  192898.727  2531.072  22
799853.955  192911.558  2532.445  22
799847.230  192921.602  2534.573  22
799843.924  192929.344  2533.710  22
799844.527  192937.367  2534.040  22
799863.665  192957.028  2533.998  22
799868.595  192964.285  2534.542  22
799885.183  192974.972  2533.121  22
799896.305  192987.988  2534.850  22
799905.774  192998.580  2536.590  22
799920.030  193007.784  2537.747  22
799938.403  193019.573  2540.118  22
799954.245  193025.825  2543.071  22
799975.089  193036.744  2549.512  22
799993.063  193049.907  2557.132  22
800015.475  193063.043  2564.081  22
800069.582  193075.421  2566.389  22
800097.664  193087.376  2566.063  22
800119.366  193097.532  2565.112  22
800139.905  193113.780  2565.429  22
800165.189  193115.549  2563.531  22
800194.748  193109.191  2564.565  22
800228.122  193105.094  2570.460  22
800268.182  193098.262  2577.438  22
800299.747  193094.483  2583.153  22
800345.387  193093.075  2590.379  22
800378.266  193090.458  2597.502  22
800408.547  193088.722  2603.160  22
800442.799  193085.346  2606.366  22
800469.643  193082.037  2609.067  22
800487.545  193085.996  2610.349  22
800516.270  193091.212  2612.038  22
800534.615  193088.722  2613.363  22
800568.818  193091.296  2617.136  22
800600.481  193091.755  2619.837  22
800635.273  193097.603  2623.779  22
800663.492  193096.644  2628.404  22
800697.222  193098.559  2634.688  22
800722.628  193100.395  2639.276  22
800747.523  193104.100  2644.195  22
800773.234  193104.151  2649.315  22
800806.003  193106.653  2655.240  22
800851.184  193110.929  2662.865  22
800893.731  193104.789  2670.300  22
800931.380  193094.160  2677.535  22
800967.598  193080.989  2684.703  22
800976.425  193071.107  2684.808  22
800997.547  193066.758  2689.635  22
801020.102  193056.983  2697.011  22
801053.966  193044.469  2706.900  22
801053.082  193034.061  2704.796  22
801074.403  193021.534  2709.935  22
801095.240  193016.103  2714.501  22
801126.980  193008.592  2721.105  22
801151.393  193002.409  2724.979  22
801177.375  192988.390  2725.607  22
801176.239  192973.460  2717.800  22
801200.115  192961.694  2716.258  22
801225.715  192957.931  2720.675  22
801241.027  192959.862  2725.677  22
801257.593  192962.715  2734.514  22
801275.380  192966.552  2740.028  22
801287.227  192973.139  2746.157  22
801289.856  192989.744  2751.234  22
801315.314  192999.427  2757.339  22
801332.258  192999.567  2759.608  22
801349.307  192998.818  2763.524  22
801385.671  192996.053  2772.307  22
801406.693  193000.931  2781.568  22
801412.919  192988.032  2772.734  22
801440.823  192999.449  2781.735  22
801473.833  193018.178  2796.164  22
801522.224  193026.220  2806.524  22
801532.287  193035.580  2811.852  22
801548.812  193051.301  2822.313  22
801558.639  193070.404  2832.958  22
801564.856  193075.185  2837.369  22
801571.757  193072.931  2835.972  22
801591.008  193078.349  2840.603  22
801599.670  193088.519  2848.063  22
801617.465  193092.871  2855.102  22
801635.980  193077.787  2850.851  22
801676.822  193075.330  2858.115  22
801694.597  193064.344  2863.813  22
801723.104  193096.823  2881.053  22
801738.752  193126.043  2892.392  22
801755.894  193148.411  2904.162  22
801768.489  193167.252  2916.009  22
801774.220  193196.501  2934.088  22
801788.978  193209.936  2937.498  22
801818.605  193231.792  2958.058  22
801828.793  193237.484  2962.955  22
801826.187  193260.347  2979.373  22
801825.518  193277.175  2990.117  22
801835.776  193278.619  2988.245  22
801857.132  193267.242  2983.422  22
801882.742  193262.699  2983.054  22
801899.906  193253.049  2978.549  22
801916.527  193243.079  2979.032  22
801949.953  193221.035  2996.235  22
801977.407  193213.985  3006.211  22
801975.354  193201.214  3006.236  22
801940.591  193196.081  2981.416  22
801930.928  193177.573  2965.754  22
801933.660  193155.836  2957.588  22
801928.704  193146.480  2954.717  22
801924.391  193128.494  2946.683  22
801927.145  193106.258  2942.823  22
801926.059  193091.156  2939.667  22
801924.052  193077.152  2935.226  22
801923.950  193071.794  2933.672  22
801928.616  193061.155  2935.133  22
801925.322  193053.756  2933.092  22
801914.749  193048.888  2925.218  22
801914.698  193044.342  2925.311  22
801891.612  193037.220  2912.217  22
801881.125  193023.200  2901.424  22
801878.935  193006.507  2894.340  22
801885.076  192992.936  2893.001  22
801884.347  192985.289  2891.591  22
801884.996  192978.550  2889.295  22
801888.047  192968.375  2890.497  22
801892.649  192951.847  2886.927  22
801904.868  192942.946  2889.652  22
801903.612  192931.294  2888.096  22
801875.908  192924.971  2871.362  22
801861.973  192924.026  2865.041  22
801849.918  192909.315  2855.290  22
801848.622  192895.991  2849.723  22
801859.797  192879.595  2844.864  22
801869.306  192872.517  2842.484  22
801885.076  192860.694  2844.712  22
801900.841  192855.431  2848.380  22
801917.388  192848.803  2852.025  22
801937.035  192858.551  2862.125  22
801967.320  192873.045  2881.004  22
801973.247  192862.703  2877.580  22
801971.763  192853.016  2873.525  22
801981.578  192846.411  2875.928  22
801985.850  192837.298  2876.107  22
801988.137  192822.209  2869.103  22
801989.146  192814.241  2867.524  22
802002.654  192798.577  2867.976  22
802005.100  192790.565  2868.712  22
802008.304  192783.141  2869.818  22
802009.897  192775.868  2872.978  22
802028.638  192774.734  2884.336  22
802042.293  192778.049  2894.140  22
802045.469  192761.847  2891.072  22
802050.326  192742.465  2887.659  22
802050.411  192724.942  2882.691  22
802052.162  192702.974  2880.088  22
802046.990  192688.554  2876.059  22
802042.841  192674.818  2874.404  22
802042.629  192668.225  2873.653  22
802050.104  192661.433  2876.742  22
802066.321  192639.229  2882.876  22
802079.541  192626.561  2887.546  22
802092.324  192618.698  2895.068  22
802099.447  192616.165  2898.956  22
802115.400  192590.210  2902.191  22
802126.872  192579.862  2904.503  22
802137.670  192570.895  2906.951  22
802143.790  192558.963  2900.937  22
802147.329  192546.171  2898.983  22
802151.248  192538.958  2900.165  22
802153.664  192528.416  2905.831  22
802161.744  192519.539  2912.116  22
802173.305  192502.242  2924.070  22
802183.723  192494.926  2934.476  22
802192.650  192466.365  2946.094  22
802202.031  192455.881  2953.866  22
802204.678  192446.794  2957.785  22
802205.461  192439.339  2960.614  22
802192.201  192426.048  2956.564  22
802181.055  192412.239  2960.035  22
802171.548  192402.183  2959.766  22
802156.457  192397.616  2951.927  22
802129.497  192384.524  2945.836  22
802099.429  192381.108  2935.626  22
802079.961  192374.360  2925.045  22
802050.387  192378.665  2907.836  22
802036.924  192376.274  2901.700  22
802026.380  192364.268  2906.561  22
802014.951  192355.500  2910.231  22
802005.979  192343.873  2918.057  22
802005.100  192336.974  2925.820  22
802018.426  192333.085  2935.488  22
802028.697  192331.077  2941.853  22
802042.466  192331.583  2948.899  22
802066.202  192324.578  2963.774  22
802099.985  192322.093  2979.528  22
802139.568  192294.973  3008.893  22
802156.121  192285.440  3022.381  22
802158.497  192273.147  3024.499  22
802143.820  192253.467  3021.045  22
802120.429  192250.589  3002.901  22
802111.563  192244.165  2996.989  22
802100.079  192238.394  2990.172  22
802076.892  192237.940  2977.113  22
802065.878  192233.316  2971.994  22
802065.863  192222.383  2969.244  22
802082.203  192211.207  2967.469  22
802099.481  192198.747  2970.710  22
802120.836  192191.103  2974.652  22
802155.935  192188.275  2980.115  22
802171.218  192188.893  2983.119  22
802193.097  192191.502  2988.324  22
802216.098  192195.515  2995.587  22
802235.811  192198.893  3002.235  22
802259.057  192205.705  3012.111  22
802277.501  192220.373  3023.413  22
802283.295  192228.944  3029.322  22
802284.919  192248.332  3043.710  22
802290.891  192244.223  3041.635  22
802303.496  192236.857  3042.396  22
802312.238  192242.077  3048.793  22
802329.505  192231.694  3049.928  22
802349.719  192220.475  3053.179  22
802382.990  192202.005  3060.091  22
802424.994  192183.287  3070.581  22
802442.432  192174.172  3074.143  22
802454.464  192167.689  3072.769  22
802464.668  192167.319  3076.013  22
802472.987  192166.568  3078.209  22
802490.381  192161.764  3081.573  22
802488.050  192153.771  3075.700  22
802492.141  192144.132  3072.785  22
802501.811  192139.991  3074.085  22
802513.312  192139.619  3078.957  22
802523.352  192133.077  3081.201  23
