667149.296  143021.144  3069.130  21
667199.276  143050.902  3070.936  22
667246.627  143076.668  3071.184  22
667292.235  143120.748  3068.561  22
667325.904  143193.659  3068.590  22
667281.486  143189.697  3077.865  22
667244.215  143177.102  3086.444  22
667213.314  143168.784  3095.691  22
667174.860  143165.984  3109.460  22
667140.247  143171.288  3117.711  22
667114.637  143184.401  3123.346  22
667086.556  143199.962  3125.430  22
667065.181  143222.024  3119.349  22
667057.009  143237.691  3112.968  22
667036.720  143243.022  3116.252  22
667012.823  143259.504  3113.308  22
666996.302  143280.369  3102.587  22
666985.011  143295.307  3099.329  22
666986.044  143323.247  3094.493  22
666974.181  143339.960  3085.268  22
666983.890  143367.387  3087.011  22
667010.300  143392.406  3080.959  22
667024.795  143410.845  3079.460  22
667023.481  143430.914  3082.813  22
667050.336  143440.089  3071.440  22
667069.986  143456.015  3064.665  22
667102.030  143475.670  3053.915  22
667130.233  143498.849  3045.041  22
667172.452  143517.890  3034.141  22
667193.568  143522.187  3028.099  22
667230.213  143551.784  3020.931  22
667259.231  143576.511  3017.771  22
667294.197  143595.739  3012.237  22
667328.011  143612.281  3006.563  22
667367.989  143632.984  3000.357  22
667392.359  143653.589  2998.255  22
667422.474  143679.119  2993.904  22
667460.124  143691.003  2983.893  22
667493.646  143715.476  2976.196  22
667497.158  143737.044  2977.002  22
667460.451  143756.042  3002.049  22
667487.587  143767.025  2991.590  22
667518.221  143763.467  2977.273  22
667546.469  143763.009  2966.597  22
667578.860  143771.512  2957.681  22
667610.835  143787.726  2950.278  22
667657.990  143808.016  2939.798  22
667685.007  143823.172  2935.291  22
667720.870  143833.304  2925.709  22
667734.197  143809.310  2920.296  22
667768.856  143814.540  2912.030  22
667801.760  143831.720  2899.653  22
667836.262  143838.295  2889.213  22
667870.270  143850.510  2878.258  22
667903.691  143872.397  2869.712  22
667941.709  143889.290  2860.874  22
667974.407  143910.703  2853.330  22
668004.232  143937.641  2844.222  22
668036.827  143956.800  2834.653  22
668062.685  143976.124  2825.520  22
668095.431  143993.183  2815.767  22
668117.157  144006.901  2809.172  22
668127.521  144029.185  2806.192  22
668092.035  144025.953  2816.055  22
668129.517  144049.627  2804.138  22
668146.032  144069.788  2800.000  22
668164.883  144100.280  2804.147  22
668191.905  144112.931  2796.698  22
668220.766  144125.911  2790.908  22
668282.827  144139.442  2783.990  22
668317.576  144131.191  2771.055  22
668353.386  144127.102  2763.891  22
668384.318  144115.661  2754.642  22
668414.258  144104.585  2746.357  22
668434.846  144089.194  2741.046  22
668463.946  144085.836  2734.503  22
668492.904  144089.020  2729.028  22
668534.713  144103.813  2721.530  22
668576.429  144120.793  2716.910  22
668619.283  144134.174  2709.047  22
668664.116  144145.691  2703.558  22
668696.341  144153.649  2697.087  22
668733.640  144160.285  2688.706  22
668763.937  144166.130  2681.451  22
668799.423  144158.822  2669.805  22
668828.340  144162.058  2662.101  22
668866.632  144177.781  2654.301  22
668898.804  144187.608  2642.792  22
668948.128  144186.469  2633.048  22
668975.496  144179.240  2627.293  22
668996.400  144194.351  2624.167  22
668999.392  144228.413  2621.764  22
669013.401  144276.408  2618.112  22
669039.476  144280.736  2617.910  22
669055.943  144306.108  2616.140  22
669062.086  144332.391  2613.710  22
669053.808  144352.034  2613.388  22
669082.794  144374.462  2612.594  22
669103.644  144402.669  2612.571  22
669112.107  144427.895  2607.497  22
669099.918  144447.619  2607.513  22
669147.445  144489.905  2607.635  22
669171.721  144517.196  2608.080  22
669196.900  144548.907  2611.408  22
669220.732  144566.567  2606.117  22
669247.289  144582.647  2601.098  22
669270.631  144602.356  2596.797  22
669293.323  144617.045  2589.164  22
669314.273  144644.199  2585.713  22
669319.706  144653.922  2584.526  22
669326.814  144686.470  2584.335  22
669353.031  144714.950  2584.172  22
669382.625  144742.184  2581.697  22
669436.783  144750.796  2573.936  22
669469.278  144769.196  2571.389  22
669509.142  144782.944  2569.476  22
669548.021  144798.899  2568.136  22
669588.237  144822.518  2565.460  22
669634.194  144843.116  2566.159  22
669669.655  144862.165  2566.687  22
669703.667  144884.568  2565.769  22
669740.820  144915.059  2565.653  22
669758.977  144941.858  2569.370  22
669795.597  144956.788  2565.765  22
669840.759  144972.768  2560.848  22
669869.325  144989.653  2558.985  22
669922.282  145003.145  2556.038  22
669960.991  145014.212  2553.726  22
669992.587  145036.554  2552.927  22
670019.676  145058.733  2550.296  22
670060.638  145067.898  2548.231  22
670094.510  145070.533  2545.768  22
670131.564  145081.581  2542.271  22
670166.962  145091.524  2537.382  22
670196.819  145106.020  2531.153  22
670209.071  145118.058  2530.810  22
670206.606  145135.241  2531.415  22
670228.948  145148.598  2528.403  22
670262.524  145163.361  2523.708  22
670289.655  145170.045  2520.697  22
670317.654  145180.818  2516.814  22
670345.320  145197.680  2513.089  22
670379.225  145211.361  2509.261  22
670417.148  145221.114  2504.951  22
670459.878  145218.571  2498.552  22
670486.973  145213.832  2492.758  22
670512.539  145219.021  2488.209  22
670528.835  145225.901  2484.744  22
670555.642  145227.952  2480.352  22
670579.308  145233.061  2474.860  22
670596.183  145233.914  2469.509  22
670607.482  145229.911  2466.742  22
670600.534  145221.816  2467.717  22
670600.148  145208.853  2469.440  22
670608.287  145209.738  2469.440  22
670607.984  145202.102  2469.526  22
670619.288  145199.258  2469.041  22
670620.319  145187.037  2467.992  22
670628.825  145182.421  2465.398  22
670641.049  145184.797  2462.678  22
670653.525  145189.739  2455.733  22
670665.895  145193.844  2450.887  22
670680.670  145196.985  2444.787  22
670695.166  145202.593  2439.029  22
670704.694  145207.553  2434.921  22
670719.728  145211.251  2429.694  22
670734.930  145218.895  2423.004  22
670748.350  145221.592  2417.964  22
670761.109  145225.034  2414.256  22
670775.779  145229.770  2409.228  22
670789.603  145232.676  2403.656  22
670798.048  145234.113  2401.669  22
670787.424  145223.081  2405.670  22
670781.054  145215.077  2409.016  22
670785.691  145210.666  2409.057  22
670795.357  145215.042  2405.890  22
670799.595  145209.902  2405.781  22
670802.491  145204.413  2405.503  22
670807.679  145199.318  2405.791  22
670821.001  145209.088  2400.307  22
670819.194  145195.526  2404.729  22
670801.082  145188.580  2411.518  22
670782.838  145181.155  2418.417  22
670756.784  145161.611  2429.819  22
670738.115  145151.382  2434.208  22
670728.067  145146.039  2439.165  22
670717.687  145132.450  2443.914  22
670725.166  145131.104  2443.954  22
670737.874  145135.072  2438.151  22
670750.471  145139.290  2434.256  22
670761.609  145140.741  2429.922  22
670770.823  145137.428  2427.781  22
670775.795  145135.667  2427.698  22
670787.400  145140.625  2423.340  22
670801.544  145145.498  2418.547  22
670808.189  145150.633  2415.499  22
670819.690  145156.076  2411.695  22
670832.329  145158.943  2406.561  22
670843.965  145168.265  2404.460  22
670859.104  145178.963  2401.389  22
670865.842  145179.222  2396.816  22
670854.027  145166.616  2403.854  22
670857.604  145153.626  2407.665  22
670863.606  145146.185  2409.490  22
670852.161  145143.238  2412.679  22
670834.553  145130.939  2417.483  22
670845.193  145128.627  2416.461  22
670854.715  145127.189  2415.624  22
670867.791  145129.032  2413.063  22
670860.029  145116.175  2417.180  22
670868.722  145109.670  2416.400  22
670891.993  145103.803  2414.582  22
670891.474  145095.580  2416.194  22
670901.592  145090.264  2414.997  22
670911.201  145086.336  2412.099  22
670914.074  145065.145  2412.758  22
670911.885  145050.994  2415.228  22
670909.375  145037.662  2416.818  22
670905.060  145023.118  2419.290  22
670900.012  145015.490  2422.420  22
670890.628  144988.669  2426.871  22
670892.115  144974.077  2429.542  22
670884.663  144958.630  2435.195  22
670872.105  144946.497  2441.164  22
670859.068  144932.629  2446.473  22
670850.504  144922.021  2449.967  22
670833.394  144914.595  2452.012  22
670826.554  144902.872  2457.066  22
670810.549  144882.885  2462.063  22
670800.177  144872.176  2464.468  22
670790.054  144858.011  2467.577  22
670777.588  144849.596  2467.411  22
670768.340  144835.439  2469.628  22
670765.000  144823.015  2470.989  22
670757.645  144810.200  2472.706  22
670751.802  144803.193  2473.612  22
670746.450  144789.606  2475.872  22
670762.822  144787.444  2478.227  22
670742.842  144773.744  2479.646  22
670730.301  144765.859  2481.526  22
670723.090  144749.697  2486.839  22
670714.747  144725.885  2495.897  22
670697.724  144723.454  2494.036  22
670678.379  144715.719  2494.460  22
670663.704  144702.530  2498.144  22
670647.533  144691.514  2500.684  22
670640.634  144682.680  2503.352  22
670644.391  144674.483  2506.845  22
670655.721  144668.849  2511.517  22
670668.872  144663.245  2514.761  22
670681.311  144661.344  2517.273  22
670682.134  144628.417  2532.659  22
670671.399  144617.257  2536.861  22
670663.127  144602.788  2543.336  22
670637.801  144589.385  2543.559  22
670625.356  144570.106  2550.409  22
670610.461  144564.525  2550.660  22
670587.269  144556.048  2550.400  22
670571.755  144561.455  2543.945  22
670554.673  144556.315  2544.060  22
670534.248  144555.541  2541.477  22
670520.975  144547.843  2544.927  22
670518.381  144541.005  2547.180  22
670513.541  144523.837  2557.493  22
670486.988  144499.924  2565.703  22
670453.685  144485.440  2567.221  22
670428.591  144474.776  2569.342  22
670416.071  144472.830  2568.434  22
670406.482  144469.478  2570.368  22
670386.319  144461.771  2574.852  22
670352.709  144441.091  2584.631  22
670338.446  144425.368  2592.690  22
670329.919  144412.447  2597.503  22
670311.706  144405.189  2600.566  22
670301.680  144399.272  2602.726  22
670290.786  144381.706  2609.219  22
670273.599  144362.475  2614.483  22
670265.128  144352.453  2617.944  22
670244.619  144355.612  2613.617  22
670218.198  144337.116  2615.180  22
670192.052  144311.826  2617.075  22
670168.368  144311.723  2606.893  22
670138.165  144281.162  2611.374  22
670143.991  144212.531  2640.802  22
670076.749  144170.654  2644.364  22
670036.977  144154.788  2640.398  22
669993.544  144143.710  2639.397  22
669985.758  144167.524  2624.016  22
669959.798  144157.802  2627.819  22
669926.455  144157.192  2624.084  22
669882.230  144155.056  2622.991  22
669852.467  144155.433  2623.016  22
669850.737  144205.893  2594.572  22
669820.705  144216.654  2590.593  22
669785.090  144211.764  2592.336  22
669753.393  144217.833  2581.269  22
669710.677  144199.383  2595.214  22
669698.007  144205.703  2593.518  22
669684.582  144198.562  2598.251  22
669667.485  144166.726  2609.942  22
669647.112  144145.391  2614.286  22
669619.753  144129.429  2617.459  22
669590.176  144114.898  2622.262  22
669570.300  144089.149  2629.258  22
669562.086  144072.194  2633.497  22
669545.665  144046.127  2642.937  22
669543.699  144025.362  2652.704  22
669536.519  143996.314  2666.823  22
669540.359  143977.988  2672.645  22
669529.050  143951.287  2682.103  22
669530.242  143933.645  2687.575  22
669545.001  143917.123  2693.082  22
669536.997  143891.115  2699.981  22
669541.379  143865.156  2707.225  22
669548.224  143851.297  2712.415  22
669561.984  143836.137  2719.929  22
669586.928  143835.410  2724.091  22
669598.002  143850.424  2722.115  22
669596.782  143861.833  2718.522  22
669590.835  143882.424  2713.708  22
669612.926  143890.063  2715.960  22
669634.595  143871.156  2724.147  22
669663.408  143861.880  2732.470  22
669688.411  143870.453  2735.648  22
669738.953  143878.504  2744.782  22
669769.052  143789.579  2778.993  22
669734.814  143762.060  2779.398  22
669712.864  143723.594  2782.440  22
669688.440  143693.491  2783.564  22
669673.900  143667.362  2786.106  22
669676.796  143638.766  2793.094  22
669693.480  143623.925  2803.821  22
669708.004  143622.650  2810.109  22
669722.413  143601.734  2816.468  22
669722.159  143584.946  2825.360  22
669695.363  143529.974  2833.406  22
669679.381  143493.736  2839.256  22
669690.095  143471.327  2855.542  22
669677.028  143449.160  2856.644  22
669675.576  143426.578  2867.547  22
669689.098  143417.782  2881.473  22
669700.650  143394.222  2889.554  22
669706.221  143369.381  2903.050  22
669698.715  143351.008  2905.971  22
669674.842  143331.416  2910.872  22
669659.237  143312.186  2923.960  22
669617.562  143308.623  2920.756  22
669580.901  143315.733  2914.861  22
669553.533  143325.572  2904.180  22
669531.269  143332.226  2894.578  22
669525.470  143370.234  2872.526  22
669529.395  143390.454  2850.821  22
669513.348  143389.522  2852.044  22
669494.649  143403.073  2840.844  22
669472.926  143400.677  2838.633  22
669452.838  143396.362  2838.814  22
669446.431  143379.497  2845.328  22
669418.101  143356.246  2852.719  22
669422.653  143331.210  2865.006  22
669400.593  143315.298  2867.774  22
669373.318  143305.279  2870.251  22
669357.822  143282.963  2876.379  22
669361.582  143271.121  2882.377  22
669340.421  143256.814  2883.034  22
669320.355  143247.889  2885.369  22
669314.529  143238.743  2890.109  22
669311.468  143223.936  2894.443  22
669318.552  143217.534  2897.688  22
669329.995  143216.717  2901.181  22
669340.340  143223.252  2901.649  22
669381.475  143250.938  2898.867  22
669386.484  143228.794  2907.776  22
669396.280  143205.350  2919.533  22
669412.796  143187.649  2937.820  22
669430.187  143166.949  2960.676  22
669436.514  143157.175  2970.121  22
669442.431  143139.541  2980.625  22
669426.930  143117.013  2983.970  22
669407.655  143107.817  2981.263  22
669388.950  143103.602  2974.485  22
669382.239  143091.360  2979.788  22
669371.230  143083.567  2975.999  22
669361.633  143071.120  2980.531  22
669339.737  143058.919  2977.087  22
669326.553  143058.905  2972.917  22
669308.897  143052.990  2969.535  22
669301.031  143038.370  2975.062  22
669294.141  143015.184  2985.261  22
669292.599  142975.329  2991.368  22
669282.029  142944.186  2991.649  22
669272.066  142925.347  2995.084  22
669265.158  142920.195  2994.198  22
669245.407  142881.691  3003.897  22
669241.702  142873.547  3006.183  22
669231.998  142868.334  3005.816  22
669220.544  142856.565  3008.151  22
669203.099  142865.970  3000.018  22
669188.260  142860.148  2998.629  22
669180.150  142851.206  2999.415  22
669167.064  142841.422  3000.121  22
669152.604  142836.709  2998.349  22
669151.876  142824.562  3000.950  22
669147.741  142814.749  3002.221  22
669125.696  142804.216  3000.708  22
669118.608  142794.409  3001.400  22
669119.892  142783.017  3003.473  22
669111.202  142778.333  3004.244  22
669097.924  142763.446  3009.130  22
669086.471  142752.410  3014.592  22
669079.270  142742.098  3020.800  22
669065.764  142739.080  3021.078  22
669044.980  142730.793  3020.148  22
669028.938  142714.091  3024.089  22
669020.933  142718.133  3019.213  22
669007.089  142702.516  3021.920  22
669000.068  142689.770  3025.217  22
668983.111  142679.119  3025.004  22
668967.285  142677.159  3020.956  22
668945.731  142666.042  3022.100  22
668931.814  142658.233  3023.318  22
668921.609  142649.162  3025.975  22
668913.695  142642.817  3026.910  22
668917.866  142628.734  3030.895  22
668930.868  142616.055  3036.286  22
668904.081  142598.127  3040.568  22
668892.165  142596.439  3041.467  22
668885.569  142591.506  3043.694  22
668867.166  142573.174  3049.560  22
668851.536  142564.004  3052.030  22
668844.131  142554.664  3054.222  22
668839.564  142545.710  3056.816  22
668836.398  142540.072  3057.946  22
668820.922  142531.544  3061.683  22
668814.968  142527.545  3064.018  22
668795.103  142513.609  3072.795  22
668786.050  142517.220  3070.721  22
668776.935  142515.994  3071.267  22
668768.697  142513.331  3072.786  22
668761.419  142505.699  3077.024  22
668752.952  142498.363  3080.268  22
668741.777  142488.378  3085.485  22
668732.980  142480.329  3090.700  22
668727.548  142475.080  3094.274  22
668715.895  142473.050  3098.189  22
668694.924  142469.325  3106.464  22
668679.911  142477.256  3103.650  22
668665.372  142487.015  3098.389  22
668654.821  142493.468  3093.348  22
668634.938  142494.469  3094.823  22
668608.155  142491.476  3091.567  22
668579.343  142484.871  3091.006  22
668560.185  142474.553  3095.995  22
668539.432  142464.325  3095.406  22
668519.673  142445.200  3102.099  22
668503.573  142425.504  3106.857  22
668487.276  142403.566  3114.325  22
668475.524  142390.418  3123.063  22
668460.127  142372.498  3128.875  22
668442.304  142364.630  3133.910  22
668418.436  142363.881  3134.981  22
668394.497  142378.951  3125.351  22
668378.722  142390.832  3117.784  22
668364.264  142408.309  3106.220  22
668355.898  142419.204  3098.117  22
668349.310  142434.145  3088.059  22
668342.355  142442.989  3082.248  22
668341.001  142450.562  3076.065  22
668340.811  142456.920  3069.912  22
668332.461  142470.483  3060.820  22
668319.112  142468.674  3061.322  22
668301.238  142462.419  3064.133  22
668289.453  142455.916  3066.030  22
668283.100  142441.949  3070.660  22
668276.524  142423.898  3077.125  22
668272.373  142412.149  3080.190  22
668270.548  142396.293  3085.189  22
668269.392  142382.312  3089.922  22
668268.018  142370.651  3092.076  22
668265.021  142352.324  3099.219  22
668262.237  142335.270  3104.722  22
668261.912  142329.499  3105.392  22
668259.393  142319.570  3106.308  22
668251.004  142291.759  3114.653  22
668244.255  142277.654  3117.343  22
668245.833  142253.982  3128.871  22
668241.578  142242.152  3130.543  22
668241.927  142228.117  3136.620  22
668234.712  142218.421  3137.701  22
668222.774  142208.204  3133.914  22
668205.581  142204.815  3127.922  22
668186.813  142198.771  3123.314  22
668173.516  142192.276  3118.187  22
668165.931  142171.734  3130.198  22
668165.417  142165.420  3131.835  22
668161.439  142158.635  3130.278  22
668148.344  142152.420  3122.899  22
668142.186  142137.766  3126.053  22
668137.222  142117.757  3127.227  22
668132.164  142103.385  3129.944  22
668123.310  142085.631  3130.861  22
668117.653  142065.381  3131.488  22
668112.407  142053.562  3129.672  22
668047.022  142040.021  3123.827  22
667934.669  142009.462  3114.348  22
667895.348  141991.867  3112.001  22
667720.138  141966.631  3106.825  22
667648.137  141951.537  3108.674  22
667588.854  141920.881  3115.969  22
667484.462  141889.039  3138.940  22
667387.650  141897.227  3158.234  22
667305.610  141959.220  3162.811  22
667299.449  142000.475  3163.507  22
667291.753  142056.042  3146.816  22
667249.922  142095.951  3155.604  22
667202.614  142099.421  3183.473  22
667151.790  142088.327  3218.053  22
667097.883  142083.713  3227.764  22
667083.148  142050.155  3248.200  22
667017.948  142030.153  3273.534  22
666968.060  142020.350  3292.190  22
666905.823  142033.631  3307.475  22
666876.707  142041.416  3313.616  22
666841.806  142052.551  3318.485  22
666817.681  142073.940  3305.606  22
666799.212  142106.192  3278.894  22
666765.366  142133.269  3268.076  22
666764.769  142170.258  3263.725  22
666776.334  142191.760  3251.269  22
666716.663  142203.742  3246.117  22
666707.184  142216.022  3243.242  22
666706.628  142267.768  3252.191  22
666732.788  142289.442  3242.029  22
666765.481  142304.257  3224.643  22
666812.754  142324.639  3202.054  22
666837.483  142346.226  3188.138  22
666882.929  142388.436  3163.619  22
666905.303  142436.275  3153.487  22
666927.123  142500.752  3151.498  22
666954.986  142548.595  3148.503  22
667005.526  142550.737  3128.068  22
667072.680  142562.237  3108.740  22
667102.585  142570.527  3097.944  22
667130.780  142600.816  3095.443  22
667133.842  142629.827  3093.524  22
667114.093  142630.197  3099.169  22
667093.590  142626.460  3105.041  22
667073.107  142623.383  3110.436  22
667052.976  142636.298  3111.304  22
667027.017  142632.624  3116.672  22
667007.110  142627.717  3121.291  22
666978.214  142619.360  3128.989  22
666948.330  142625.168  3132.225  22
666986.788  142684.710  3112.545  22
667039.750  142778.882  3088.081  22
667077.273  142852.274  3077.568  22
667114.878  142927.642  3074.187  22
667149.296  143021.144  3069.130  23
667688.728  143360.354  3022.171  21
667699.107  143356.759  3022.154  22
667716.848  143358.541  3021.300  22
667735.195  143357.716  3020.864  22
667754.066  143363.463  3018.517  22
667771.727  143368.091  3016.416  22
667792.745  143377.080  3013.384  22
667809.094  143384.336  3010.786  22
667825.759  143390.748  3007.922  22
667837.191  143395.075  3005.842  22
667845.614  143400.975  3004.078  22
667845.986  143404.566  3003.390  22
667835.529  143415.733  3002.588  22
667816.646  143416.982  3004.784  22
667798.573  143415.007  3007.394  22
667782.326  143414.354  3008.568  22
667765.451  143416.146  3008.524  22
667748.665  143414.618  3009.680  22
667730.704  143409.509  3011.253  22
667716.930  143400.619  3013.531  22
667705.707  143389.718  3016.135  22
667690.588  143370.297  3019.992  22
667688.728  143360.354  3022.171  23
667149.296  143021.144  3069.130  20
668088.843  143411.443  2968.469  21
668095.431  143407.774  2967.826  22
668110.516  143411.296  2964.492  22
668124.733  143415.237  2961.569  22
668136.489  143422.240  2958.744  22
668138.463  143424.701  2958.052  22
668127.444  143430.458  2959.176  22
668106.393  143422.844  2964.091  22
668088.843  143411.443  2968.469  23
667149.296  143021.144  3069.130  20
668246.409  143466.202  2937.310  21
668257.257  143472.945  2935.468  22
668269.181  143479.051  2933.031  22
668277.995  143472.517  2933.435  22
668263.178  143457.051  2937.498  22
668273.443  143455.858  2936.425  22
668291.111  143448.717  2935.979  22
668308.566  143453.750  2933.672  22
668321.158  143461.731  2931.276  22
668340.902  143471.287  2928.473  22
668355.707  143480.115  2925.732  22
668362.913  143490.285  2923.395  22
668379.911  143491.809  2921.928  22
668384.284  143500.362  2919.591  22
668394.595  143507.695  2917.594  22
668405.310  143515.234  2915.464  22
668421.149  143525.109  2912.368  22
668422.215  143532.580  2910.107  22
668412.366  143536.791  2909.453  22
668400.640  143541.293  2908.867  22
668392.121  143541.739  2908.684  22
668376.558  143526.723  2914.769  22
668360.149  143523.185  2915.888  22
668338.222  143518.284  2918.255  22
668345.090  143532.587  2914.312  22
668341.029  143545.332  2911.141  22
668337.203  143548.618  2910.115  22
668311.120  143531.379  2917.825  22
668294.068  143520.716  2921.952  22
668271.801  143514.843  2925.001  22
668254.951  143501.555  2929.445  22
668248.733  143492.438  2932.134  22
668243.983  143476.443  2935.937  22
668246.409  143466.202  2937.310  23
667149.296  143021.144  3069.130  20
668613.004  143757.756  2824.017  21
668634.774  143747.802  2831.635  22
668652.933  143754.856  2829.594  22
668676.842  143771.278  2824.004  22
668691.422  143783.898  2819.813  22
668712.369  143795.694  2814.387  22
668732.528  143805.419  2809.408  22
668759.532  143813.265  2803.264  22
668778.928  143833.154  2793.801  22
668798.591  143850.362  2784.206  22
668808.969  143864.471  2776.128  22
668805.265  143882.578  2765.727  22
668815.222  143894.521  2759.004  22
668839.485  143899.083  2757.749  22
668850.734  143888.884  2764.741  22
668849.043  143873.272  2772.133  22
668863.175  143863.078  2776.677  22
668881.605  143872.223  2772.439  22
668903.755  143883.817  2764.060  22
668922.163  143894.618  2757.303  22
668940.137  143905.713  2745.731  22
668960.723  143918.737  2732.535  22
668983.816  143938.715  2712.611  22
668999.249  143942.955  2702.275  22
669017.321  143961.739  2685.570  22
669025.133  143973.912  2678.599  22
669035.895  143995.722  2668.504  22
669036.917  144008.727  2661.650  22
669033.561  144028.064  2650.620  22
669012.445  144017.519  2659.449  22
668996.073  144021.718  2658.039  22
668991.693  144021.103  2658.368  22
668937.791  144016.077  2671.036  22
668907.283  144007.077  2680.022  22
668879.014  143993.110  2692.382  22
668844.733  143991.829  2697.445  22
668816.608  143982.616  2704.287  22
668778.406  143961.995  2717.136  22
668753.909  143935.915  2734.043  22
668764.821  143918.010  2744.777  22
668740.607  143921.853  2746.481  22
668711.286  143923.852  2744.659  22
668688.840  143914.707  2749.071  22
668669.109  143904.644  2753.102  22
668643.788  143893.367  2757.268  22
668623.730  143876.399  2762.897  22
668612.494  143858.951  2772.381  22
668616.972  143843.532  2781.399  22
668608.547  143829.548  2787.162  22
668598.324  143808.614  2796.535  22
668607.062  143791.793  2806.685  22
668603.253  143768.942  2817.120  22
668613.004  143757.756  2824.017  23
667149.296  143021.144  3069.130  20
