   672899.31   161714.58   2542.67
   672890.88   161719.16   2536.20
   672879.88   161724.98   2531.18
   672867.25   161734.44   2523.27
   672858.06   161741.34   2516.81
   672845.56   161751.05   2508.19
   672838.00   161759.66   2501.72
   672828.94   161770.48   2495.26
   672819.31   161779.94   2486.64
   672810.38   161789.97   2479.45
   672801.19   161799.61   2472.99
   672791.19   161809.70   2463.65
   672782.06   161819.05   2451.43
   672772.19   161829.11   2439.22
   672762.50   161838.27   2430.60
   672752.25   161847.88   2424.14
   672742.56   161856.59   2417.67
   672732.62   161866.56   2411.92
   672723.19   161875.69   2404.02
   672713.44   161885.77   2395.40
   672703.62   161895.28   2388.22
   672693.50   161904.69   2383.19
   672684.25   161914.03   2377.44
   672674.00   161923.88   2366.66
   672664.94   161932.73   2360.92
   672654.31   161942.83   2353.01
   672645.06   161951.25   2348.70
   672633.62   161960.62   2338.65
   672623.50   161968.92   2329.31
   672612.44   161977.91   2323.56
   672601.81   161986.81   2317.09
   672590.62   161995.81   2309.91
   672579.75   162004.70   2305.60
   672568.75   162012.94   2301.29
   672558.12   162021.56   2299.14
   672546.69   162029.84   2297.70
   672535.94   162038.20   2295.54
   672525.19   162047.12   2294.11
   672514.75   162054.11   2292.67
   672503.31   162061.67   2294.11
   672492.62   162070.00   2295.54
   672482.81   162078.41   2300.57
   672471.00   162087.19   2303.45
   672460.50   162094.45   2307.04
   672448.75   162102.97   2316.38
   672438.50   162110.94   2322.84
   672426.75   162118.78   2328.59
   672416.31   162126.52   2335.05
   672404.50   162134.80   2340.80
   672393.75   162142.27   2347.27
   672380.06   162151.05   2354.45
   672370.50   162157.28   2359.48
   672357.75   162165.03   2365.95
   672347.25   162171.41   2368.82
   672335.38   162179.17   2374.57
   672325.50   162185.34   2377.44
   672312.19   162193.77   2381.75
   672301.25   162200.86   2385.34
   672289.06   162209.00   2391.81
   672278.12   162216.34   2396.84
   672267.81   162227.09   2403.30
   672259.88   162237.41   2410.49
   672251.25   162247.69   2419.11
   672243.25   162258.75   2424.14
   672233.25   162270.80   2428.45
   672225.00   162279.86   2434.19
   672215.88   162290.80   2438.50
   672207.12   162300.12   2444.25
   672197.75   162311.09   2452.15
   672188.00   162321.02   2457.90
   672179.38   162331.45   2462.93
   672170.44   162340.91   2467.24
   672161.31   162351.91   2472.99
   672152.50   162360.98   2476.58
   672143.06   162371.16   2484.48
   672133.56   162380.30   2490.23
   672123.38   162391.02   2493.10
   672114.06   162400.12   2495.97
   672103.62   162410.06   2502.44
   672094.00   162419.55   2508.91
   672084.12   162431.02   2515.37
   672074.94   162440.69   2521.12
   672065.75   162450.38   2525.43
   672055.69   162460.91   2529.74
   672046.50   162470.36   2534.05
   672036.56   162480.61   2539.08
   672027.31   162489.62   2542.67
   672016.62   162499.38   2549.85
   672007.56   162507.22   2557.04
   671995.44   162515.11   2565.66
   671983.75   162519.62   2567.81
