674114.75  164091.80  2733.329
674101.88  164089.92  2717.360
674087.94  164089.20  2702.532
674074.19  164087.09  2684.282
674063.25  164086.55  2669.454
674048.94  164085.62  2654.626
674037.31  164084.91  2647.782
674021.25  164084.73  2634.095
674008.50  164084.47  2620.408
673994.56  164084.44  2605.580
673981.62  164084.20  2595.314
673967.69  164084.17  2582.767
673954.56  164084.06  2573.642
673940.00  164084.02  2563.376
673926.75  164083.95  2553.111
673912.38  164083.94  2539.424
673899.19  164084.48  2530.299
673884.75  164082.12  2518.893
673871.75  164080.67  2509.768
673857.56  164079.16  2497.221
673844.06  164077.77  2488.096
673830.31  164076.09  2478.971
673816.50  164074.06  2472.127
673801.88  164072.45  2463.002
673788.69  164068.73  2456.158
673773.50  164065.61  2447.033
673761.50  164063.33  2436.768
673746.31  164060.31  2431.065
673733.88  164058.53  2421.940
673718.50  164056.11  2418.518
673706.00  164055.19  2416.237
673691.25  164052.00  2415.096
673679.12  164049.62  2416.237
673663.81  164047.39  2417.377
673651.38  164044.77  2418.518
673637.00  164042.23  2419.659
673623.88  164040.66  2420.799
673608.81  164039.45  2421.940
673595.94  164038.48  2424.221
673581.19  164037.80  2427.643
673568.38  164036.56  2433.346
673553.44  164035.52  2436.768
673540.75  164034.38  2439.049
673526.19  164033.58  2445.893
673513.12  164032.23  2449.315
673498.38  164031.50  2456.158
673486.25  164030.98  2465.284
673471.00  164030.45  2468.705
673458.44  164029.45  2473.268
673443.06  164028.55  2480.112
673430.94  164027.84  2485.814
673415.25  164026.44  2491.518
673403.25  164025.19  2497.221
673387.62  164023.38  2501.783
673375.44  164021.95  2506.346
673360.00  164020.27  2512.049
673347.88  164018.92  2516.611
673332.06  164017.42  2523.455
673320.19  164016.67  2529.158
673304.38  164015.61  2539.424
673292.12  164014.81  2547.408
673276.56  164013.78  2556.533
673264.25  164012.83  2563.376
673249.00  164011.80  2572.501
673236.69  164010.69  2580.486
673221.25  164009.20  2589.611
673208.69  164007.58  2597.595
673193.62  164006.08  2607.861
673180.81  164004.73  2614.704
673167.50  164002.66  2626.111
673152.94  164002.00  2637.517
673138.38  164001.34  2647.782
673125.12  164000.98  2661.470
673110.38  164000.66  2676.298
673097.25  164000.45  2693.407
673082.62  163999.56  2709.376
673069.81  163997.80  2727.625
673055.06  163994.03  2753.860
673043.50  163990.36  2777.813
673028.38  163987.52  2807.469
673016.44  163985.30  2846.250
673001.94  163983.53  2864.500
672989.69  163980.55  2875.906
672975.56  163978.12  2881.609
