   673400.19   165153.34   2817.24
   673388.38   165153.84   2813.79
   673376.62   165154.33   2806.89
   673363.44   165155.33   2795.69
   673351.00   165156.52   2784.48
   673338.38   165157.69   2775.00
   673325.31   165158.06   2768.10
   673312.31   165158.77   2758.62
   673299.69   165159.81   2750.00
   673287.25   165160.05   2743.96
   673275.25   165160.62   2737.07
   673260.44   165160.62   2726.72
   673250.19   165161.64   2719.82
   673235.81   165160.56   2712.93
   673222.69   165161.44   2705.17
   673210.44   165162.66   2699.14
   673197.75   165162.89   2693.10
   673185.25   165164.16   2686.20
   673171.69   165164.80   2680.17
   673158.75   165164.36   2675.86
   673146.06   165164.80   2672.41
   673133.88   165166.05   2670.69
   673120.69   165165.84   2667.24
   673107.62   165165.30   2666.38
   673094.25   165166.88   2663.79
   673081.19   165168.12   2666.38
   673068.81   165168.91   2668.96
   673055.31   165170.62   2671.55
   673041.94   165170.39   2675.86
   673027.56   165171.03   2681.03
   673015.06   165170.97   2684.48
   673002.19   165172.44   2757.28
   672988.88   165172.27   2761.06
   672976.94   165174.67   2767.09
   672963.19   165175.64   2771.62
   672950.12   165176.52   2776.90
   672937.25   165176.84   2784.45
   672924.25   165178.02   2791.24
   672912.00   165177.42   2797.27
   672901.62   165176.73   2802.56
   672888.81   165178.30   2810.10
   672874.00   165179.91   2819.91
   672863.38   165180.62   2825.19
   672851.00   165181.59   2829.72
   672837.69   165183.16   2834.25
   672825.38   165185.31   2838.77
   672812.50   165187.22   2843.30
   672800.19   165188.94   2847.07
   672786.69   165189.94   2850.85
   672773.12   165190.94   2853.86
   672759.38   165192.30   2857.64
   672746.25   165193.48   2862.17
   672733.69   165193.84   2868.96
   672720.25   165195.62   2875.75
   672707.81   165196.94   2880.27
   672695.00   165198.34   2885.56
   672681.44   165198.81   2890.84
   672667.06   165199.05   2898.38
   672655.50   165199.77   2903.67
   672642.06   165200.78   2913.47
   672629.00   165200.80   2924.79
