674809.54  166353.42  3392.10
674809.06  166354.77  3392.38
674808.58  166356.13  3392.67
674808.11  166357.48  3392.99
674807.63  166358.84  3393.44
674807.20  166360.20  3393.52
674806.80  166361.59  3394.00
674806.41  166362.96  3394.03
674806.01  166364.33  3394.20
674805.61  166365.71  3394.42
674805.25  166367.10  3394.56
674804.92  166368.50  3394.70
674804.59  166369.90  3394.83
674804.26  166371.30  3395.09
674803.93  166372.70  3395.36
674803.65  166374.14  3395.39
674803.37  166375.58  3395.43
674803.09  166377.02  3395.37
674802.82  166378.47  3395.31
674802.59  166379.92  3395.21
674802.38  166381.38  3395.26
674802.17  166382.85  3395.17
674801.96  166384.31  3395.02
674801.78  166385.78  3394.88
674801.62  166387.26  3394.70
674801.45  166388.73  3394.57
674801.28  166390.19  3394.53
674801.13  166391.68  3394.27
674800.97  166393.17  3393.95
674800.81  166394.65  3393.64
674800.66  166396.13  3393.46
674800.50  166397.62  3393.38
674800.35  166399.10  3393.43
674800.19  166400.59  3393.25
674800.03  166402.07  3393.06
674799.82  166403.55  3392.93
674799.62  166405.03  3392.79
674799.41  166406.52  3392.72
674799.20  166407.99  3392.73
674798.95  166409.47  3392.61
674798.69  166410.94  3392.47
674798.42  166412.41  3392.33
674798.16  166413.89  3392.25
674797.87  166415.35  3391.88
674797.56  166416.81  3391.65
674797.25  166418.28  3391.41
674796.93  166419.74  3391.10
674796.61  166421.21  3390.83
674796.26  166422.66  3390.48
674795.90  166424.12  3390.13
674795.53  166425.57  3389.85
674795.17  166427.03  3389.59
674794.80  166428.49  3389.31
674794.41  166429.93  3389.05
674794.03  166431.38  3389.25
674793.65  166432.84  3389.42
674793.27  166434.29  3389.64
674792.89  166435.74  3389.81
674792.53  166437.20  3389.99
674792.15  166438.64  3390.16
674791.78  166440.09  3390.27
674791.41  166441.55  3390.19
674791.05  166443.01  3390.10
674790.69  166444.46  3390.01
674790.33  166445.92  3389.90
674789.97  166447.37  3389.80
674789.61  166448.84  3389.72
674789.27  166450.29  3389.59
674788.94  166451.75  3389.46
674788.61  166453.22  3389.31
674788.28  166454.67  3389.35
674787.95  166456.14  3389.39
674787.64  166457.60  3389.46
674787.34  166459.07  3389.53
674787.03  166460.54  3389.58
674786.73  166462.01  3389.60
674786.42  166463.47  3389.36
674786.16  166464.95  3389.13
674785.89  166466.42  3388.90
674785.62  166467.90  3388.63
674785.35  166469.37  3388.46
674785.09  166470.85  3388.27
674784.86  166472.32  3387.93
674784.63  166473.80  3387.63
674784.40  166475.28  3387.29
674784.18  166476.75  3386.97
674783.96  166478.24  3386.62
674783.76  166479.73  3386.37
674783.56  166481.20  3386.09
674783.36  166482.69  3385.81
674783.17  166484.18  3385.53
674782.99  166485.67  3385.19
674782.82  166487.14  3384.85
674782.65  166488.63  3384.62
674782.48  166490.12  3384.41
674782.31  166491.61  3384.15
674782.15  166493.10  3383.97
674781.99  166494.59  3383.80
674781.83  166496.08  3383.70
674781.66  166497.58  3383.63
674781.48  166499.06  3383.67
674781.31  166500.55  3383.58
674781.13  166502.04  3383.56
674780.94  166503.52  3383.54
674780.75  166505.01  3383.07
674780.56  166506.51  3382.66
674780.36  166508.00  3382.27
674780.14  166509.47  3381.89
674779.92  166510.96  3381.52
674779.70  166512.45  3381.18
674779.47  166513.93  3380.89
674779.22  166515.41  3380.60
674778.97  166516.88  3380.33
674778.72  166518.37  3380.09
674778.44  166519.84  3379.87
674778.16  166521.31  3379.70
674777.87  166522.79  3379.51
674777.59  166524.26  3379.28
674777.30  166525.74  3379.38
674777.02  166527.21  3379.48
674776.73  166528.68  3379.58
674776.45  166530.15  3379.65
674776.18  166531.63  3379.64
674775.90  166533.10  3379.16
674775.63  166534.58  3378.70
674775.37  166536.05  3378.19
674775.10  166537.53  3378.13
674774.85  166538.99  3377.10
674774.59  166540.47  3376.52
674774.32  166541.95  3375.94
674774.06  166543.42  3375.36
674773.80  166544.89  3374.72
674773.53  166546.36  3374.67
674773.27  166547.84  3374.57
674773.01  166549.31  3374.51
674772.74  166550.79  3374.40
674772.49  166552.27  3374.33
674772.24  166553.74  3374.25
674771.98  166555.22  3374.18
674771.73  166556.70  3374.13
674771.48  166558.18  3373.99
674771.23  166559.65  3373.84
674770.97  166561.13  3373.68
674770.71  166562.62  3373.55
674770.44  166564.09  3373.44
674770.17  166565.57  3373.30
674769.91  166567.04  3373.20
674769.65  166568.52  3373.12
674769.38  166569.98  3373.05
674769.11  166571.46  3373.23
674768.82  166572.93  3373.44
674768.53  166574.40  3373.69
674768.24  166575.88  3373.94
674767.93  166577.34  3374.16
674767.63  166578.81  3374.38
674767.32  166580.28  3374.61
674767.00  166581.74  3374.71
674766.69  166583.22  3374.83
674766.37  166584.68  3374.91
674766.05  166586.15  3374.95
674765.73  166587.61  3375.02
674765.40  166589.08  3375.11
674765.08  166590.54  3375.13
674764.74  166592.01  3375.08
674764.40  166593.46  3375.14
674764.06  166594.92  3375.22
674763.71  166596.38  3375.32
674763.34  166597.83  3375.39
674762.98  166599.28  3375.39
674762.62  166600.74  3375.40
674762.24  166602.19  3375.45
674761.87  166603.65  3375.47
674761.50  166605.10  3375.50
674761.13  166606.54  3375.56
674760.75  166608.00  3375.62
674760.36  166609.45  3375.68
674759.98  166610.90  3375.73
674759.60  166612.36  3375.78
674759.21  166613.80  3375.67
674758.83  166615.25  3375.62
674758.44  166616.70  3375.40
674758.06  166618.15  3375.21
674757.68  166619.60  3375.01
674757.30  166621.05  3374.82
674756.93  166622.51  3374.63
674756.57  166623.96  3374.44
674756.21  166625.42  3374.27
674755.86  166626.87  3374.08
674755.50  166628.32  3373.87
674755.16  166629.78  3374.32
674754.82  166631.24  3374.70
674754.48  166632.70  3375.11
674754.14  166634.16  3375.54
674753.82  166635.62  3375.89
674753.51  166637.09  3376.18
674753.20  166638.55  3376.49
674752.89  166640.02  3376.78
674752.62  166641.48  3377.16
674752.35  166642.95  3377.41
674752.09  166644.42  3377.51
674751.82  166645.88  3377.62
674751.60  166647.34  3377.79
674751.39  166648.79  3377.92
674751.18  166650.26  3378.12
674750.97  166651.72  3378.58
674750.78  166653.16  3378.88
674750.59  166654.62  3379.20
674750.40  166656.08  3379.50
674750.22  166657.54  3379.79
674750.03  166658.99  3380.18
674749.84  166660.46  3380.58
674749.64  166661.92  3380.87
674749.45  166663.37  3381.19
674749.26  166664.84  3381.50
674749.08  166666.30  3381.86
674748.89  166667.76  3382.32
674748.72  166669.21  3382.74
674748.56  166670.68  3383.14
674748.41  166672.15  3383.53
674748.26  166673.62  3383.94
674748.13  166675.09  3384.38
674748.02  166676.55  3384.88
674747.91  166678.03  3385.00
674747.80  166679.50  3385.11
674747.70  166680.97  3385.24
674747.62  166682.45  3385.18
674747.53  166683.93  3385.20
674747.45  166685.41  3385.28
674747.37  166686.90  3385.37
674747.30  166688.38  3385.40
674747.23  166689.86  3385.40
674747.17  166691.35  3385.69
674747.10  166692.83  3385.97
674747.05  166694.32  3386.28
674747.00  166695.80  3386.63
674746.95  166697.29  3386.95
674746.90  166698.77  3387.19
674746.88  166700.26  3387.51
674746.86  166701.74  3387.31
674746.83  166703.22  3387.14
674746.80  166704.70  3387.03
674746.78  166706.18  3386.91
674746.77  166707.65  3386.84
674746.76  166709.13  3386.77
674746.75  166710.60  3386.72
674746.73  166712.08  3386.65
674746.74  166713.55  3386.62
674746.75  166715.02  3386.91
674746.75  166716.50  3387.23
674746.76  166717.97  3387.54
674746.77  166719.44  3387.84
674746.77  166720.92  3388.14
674746.79  166722.40  3388.42
674746.80  166723.87  3388.51
674746.80  166725.35  3388.59
674746.78  166726.83  3388.61
674746.75  166728.32  3388.62
674746.73  166729.80  3388.66
674746.71  166731.29  3388.70
674746.68  166732.78  3388.74
674746.66  166734.26  3388.78
674746.63  166735.75  3388.59
674746.61  166737.23  3388.40
674746.61  166738.72  3388.24
674746.61  166740.20  3388.13
674746.61  166741.70  3388.01
674746.61  166743.18  3387.84
674746.62  166744.67  3387.80
674746.63  166746.15  3387.75
674746.65  166747.63  3387.73
674746.66  166749.11  3387.75
674746.70  166750.60  3388.08
674746.75  166752.08  3388.41
674746.79  166753.57  3388.82
674746.83  166755.06  3389.26
674746.90  166756.54  3389.68
674746.98  166758.03  3390.07
674747.05  166759.52  3390.48
674747.12  166761.01  3390.77
674747.22  166762.50  3391.15
674747.32  166763.99  3391.56
674747.43  166765.48  3391.62
674747.53  166766.97  3391.67
674747.65  166768.46  3391.72
674747.79  166769.96  3391.62
674747.94  166771.44  3391.45
674748.08  166772.93  3391.46
674748.22  166774.43  3391.48
674748.41  166775.91  3391.47
674748.61  166777.40  3391.50
674748.81  166778.88  3391.51
674749.01  166780.37  3391.84
674749.21  166781.85  3392.15
674749.45  166783.34  3392.53
674749.69  166784.81  3392.90
674749.92  166786.30  3393.29
674750.16  166787.77  3393.66
674750.40  166789.26  3394.23
674750.68  166790.74  3394.74
674750.96  166792.20  3395.18
674751.24  166793.68  3395.67
674751.52  166795.15  3395.62
674751.81  166796.63  3395.57
674752.14  166798.09  3395.53
674752.47  166799.56  3395.50
674752.80  166801.02  3395.48
674753.13  166802.48  3395.38
674753.46  166803.95  3395.19
674753.82  166805.41  3395.20
674754.18  166806.85  3395.22
674754.54  166808.31  3395.21
674754.90  166809.77  3395.23
674755.26  166811.23  3395.22
674755.66  166812.68  3395.33
674756.05  166814.13  3395.30
674756.45  166815.57  3395.38
674756.84  166817.02  3395.47
674757.23  166818.47  3395.56
674757.63  166819.91  3395.59
674758.04  166821.36  3395.66
674758.44  166822.81  3395.67
674758.84  166824.26  3395.56
674759.22  166825.71  3395.82
674759.58  166827.15  3396.16
674759.94  166828.61  3396.45
674760.31  166830.07  3396.54
674760.67  166831.53  3396.97
674760.95  166833.00  3397.26
674761.20  166834.48  3397.53
674761.46  166835.96  3397.83
674761.72  166837.43  3398.22
674761.87  166838.92  3398.57
674761.96  166840.41  3398.98
674762.06  166841.91  3398.99
674762.15  166843.40  3398.92
674762.13  166844.89  3398.94
674761.99  166846.37  3399.06
674761.86  166847.86  3399.20
674761.72  166849.34  3399.37
674761.50  166850.82  3399.49
674761.14  166852.27  3399.50
674760.79  166853.72  3399.54
674760.44  166855.18  3399.68
674760.04  166856.61  3400.17
674759.47  166858.00  3400.28
674758.90  166859.39  3400.38
674758.33  166860.78  3400.47
674757.76  166862.17  3400.42
674757.04  166863.48  3400.56
674756.31  166864.79  3400.66
674755.58  166866.11  3400.63
674754.85  166867.41  3400.89
674754.08  166868.70  3401.27
674753.25  166869.95  3401.47
674752.42  166871.20  3401.58
674751.59  166872.44  3401.87
674750.76  166873.69  3402.20
674749.90  166874.91  3402.46
674748.99  166876.10  3402.67
674748.10  166877.30  3402.90
674747.20  166878.49  3403.14
674746.31  166879.69  3403.14
674745.40  166880.87  3403.12
674744.45  166882.03  3403.28
674743.50  166883.19  3403.42
674742.55  166884.34  3403.58
674741.61  166885.49  3403.71
674740.66  166886.65  3403.84
674739.67  166887.78  3404.00
674738.67  166888.90  3404.01
674737.68  166890.01  3403.69
674736.68  166891.12  3403.47
674735.67  166892.23  3403.28
674734.67  166893.34  3403.11
674733.63  166894.41  3402.94
674732.58  166895.48  3402.75
674731.53  166896.54  3402.55
674730.47  166897.60  3402.34
674729.42  166898.67  3402.05
674728.37  166899.73  3401.70
674727.29  166900.76  3401.47
674726.18  166901.75  3401.30
674725.08  166902.76  3401.16
674723.97  166903.77  3401.01
674722.87  166904.78  3400.86
674721.77  166905.79  3400.68
674720.62  166906.75  3400.55
674719.45  166907.68  3400.28
674718.28  166908.62  3400.01
674717.11  166909.56  3399.81
674715.95  166910.49  3399.67
674714.78  166911.42  3399.53
674713.56  166912.29  3399.31
674712.33  166913.15  3399.15
674711.11  166913.99  3398.71
674709.88  166914.85  3398.23
674708.65  166915.69  3397.67
674707.41  166916.54  3397.10
674706.14  166917.31  3396.56
674704.85  166918.07  3396.05
674703.58  166918.84  3395.54
674702.29  166919.60  3395.01
674701.01  166920.37  3394.50
674699.71  166921.08  3393.96
674698.37  166921.73  3393.41
674697.03  166922.38  3392.76
674695.69  166923.03  3392.18
674694.34  166923.69  3391.64
674692.99  166924.29  3391.06
674691.62  166924.88  3390.98
674690.24  166925.42  3391.01
674688.85  166925.96  3391.05
674687.45  166926.49  3391.05
674686.06  166927.02  3390.96
674684.66  166927.52  3390.88
674683.24  166927.95  3390.88
674681.82  166928.38  3390.82
674680.40  166928.81  3390.83
674678.98  166929.24  3390.51
674677.56  166929.67  3390.23
674676.13  166930.04  3389.84
674674.69  166930.40  3389.41
674673.25  166930.76  3389.01
674671.81  166931.12  3388.64
674670.39  166931.48  3388.23
674668.94  166931.83  3387.82
674667.49  166932.15  3387.46
674666.04  166932.48  3387.02
674664.60  166932.80  3386.59
674663.15  166933.13  3386.19
674661.70  166933.46  3385.80
674660.25  166933.80  3385.45
674658.81  166934.15  3385.16
674657.36  166934.49  3384.84
674655.91  166934.83  3384.52
674654.47  166935.18  3385.05
674653.03  166935.59  3385.70
674651.59  166936.01  3386.28
674650.16  166936.43  3386.23
674648.72  166936.84  3386.27
674647.28  166937.26  3386.35
674645.87  166937.74  3386.46
674644.46  166938.25  3386.58
674643.06  166938.77  3386.75
674641.64  166939.27  3386.91
674640.23  166939.78  3386.96
674638.84  166940.33  3387.10
674637.48  166940.94  3387.32
674636.11  166941.53  3387.53
674634.73  166942.13  3387.80
674633.36  166942.73  3388.10
674632.01  166943.35  3388.42
674630.68  166944.03  3388.58
674629.37  166944.73  3388.60
674628.04  166945.41  3388.80
674626.73  166946.10  3389.06
674625.42  166946.79  3389.21
674624.16  166947.56  3389.33
674622.90  166948.33  3389.42
674621.65  166949.11  3389.46
674620.39  166949.87  3389.40
674619.14  166950.65  3389.19
674617.95  166951.48  3389.14
674616.77  166952.35  3389.14
674615.59  166953.21  3389.11
674614.41  166954.08  3389.06
674613.24  166954.93  3388.97
674612.10  166955.85  3388.87
674610.99  166956.81  3388.64
674609.88  166957.77  3388.37
674608.78  166958.73  3388.39
674607.67  166959.68  3388.41
674606.58  166960.66  3388.47
674605.53  166961.70  3388.53
674604.49  166962.74  3388.59
674603.43  166963.79  3388.62
674602.38  166964.83  3388.57
674601.34  166965.88  3388.48
674600.32  166966.96  3388.54
674599.29  166968.04  3388.58
674598.27  166969.12  3388.59
674597.24  166970.20  3388.64
674596.22  166971.30  3388.65
674595.19  166972.38  3388.72
674594.16  166973.46  3388.76
674593.13  166974.55  3388.84
674592.09  166975.63  3388.97
674591.05  166976.71  3389.17
674590.00  166977.78  3389.44
674588.94  166978.83  3389.72
674587.88  166979.88  3390.00
674586.81  166980.94  3390.25
674585.74  166982.00  3390.48
674584.65  166983.03  3390.81
674583.54  166984.03  3391.23
674582.43  166985.04  3391.10
674581.32  166986.05  3391.00
674580.21  166987.06  3390.94
674579.06  166988.02  3390.86
674577.91  166988.98  3390.61
674576.75  166989.94  3390.41
674575.59  166990.89  3390.32
674574.43  166991.84  3390.23
674573.24  166992.74  3390.13
674572.04  166993.64  3390.01
674570.84  166994.53  3389.87
674569.65  166995.43  3389.53
674568.42  166996.29  3389.94
674567.17  166997.10  3390.41
674565.93  166997.93  3390.85
674564.69  166998.74  3391.27
674563.43  166999.53  3391.27
674562.15  167000.25  3391.08
674560.85  167000.97  3390.91
674559.57  167001.70  3390.78
674558.26  167002.37  3390.64
674556.93  167002.99  3390.87
674555.59  167003.61  3391.03
674554.25  167004.23  3391.10
674552.89  167004.78  3391.21
674551.51  167005.31  3391.37
674550.13  167005.83  3391.45
674548.75  167006.35  3391.51
674547.35  167006.83  3391.59
674545.95  167007.31  3391.66
674544.55  167007.78  3391.56
674543.14  167008.26  3391.58
674541.72  167008.75  3391.64
674540.30  167009.25  3391.70
674538.88  167009.75  3391.75
674537.48  167010.27  3391.87
674536.08  167010.79  3392.03
674534.68  167011.32  3392.21
674533.29  167011.90  3392.07
674531.93  167012.51  3391.84
674530.55  167013.12  3391.75
674529.18  167013.73  3391.63
674527.84  167014.41  3391.58
674526.52  167015.12  3391.53
674525.19  167015.81  3391.44
674523.86  167016.50  3391.26
674522.57  167017.28  3391.08
674521.29  167018.05  3390.94
674520.01  167018.83  3390.81
674518.73  167019.60  3390.72
674517.48  167020.44  3390.62
674516.25  167021.30  3390.36
674515.01  167022.15  3390.20
674513.79  167023.00  3390.14
674512.56  167023.87  3390.08
674511.36  167024.77  3389.97
674510.16  167025.66  3389.84
674508.95  167026.55  3389.69
674507.75  167027.45  3389.36
674506.58  167028.38  3389.14
674505.42  167029.33  3389.10
674504.25  167030.26  3389.01
674503.09  167031.20  3388.95
674501.92  167032.15  3388.82
674500.78  167033.12  3388.67
674499.64  167034.08  3388.41
674498.50  167035.05  3388.26
674497.36  167036.02  3388.16
674496.21  167036.98  3388.08
674495.05  167037.94  3388.00
674493.90  167038.89  3387.92
674492.74  167039.84  3387.78
674491.59  167040.80  3387.47
674490.41  167041.73  3387.39
674489.23  167042.65  3387.31
674488.04  167043.58  3387.43
674486.86  167044.50  3387.52
674485.67  167045.41  3387.65
674484.47  167046.29  3387.69
674483.25  167047.18  3387.60
674482.04  167048.05  3387.70
674480.83  167048.93  3387.53
674479.58  167049.77  3387.35
674478.33  167050.58  3387.17
674477.08  167051.41  3386.96
674475.82  167052.22  3386.63
674474.56  167053.02  3386.30
674473.26  167053.76  3386.00
674471.97  167054.51  3386.40
674470.67  167055.25  3386.76
674469.37  167056.00  3387.09
674468.05  167056.65  3387.34
674466.72  167057.31  3388.05
674465.39  167057.98  3387.95
674464.07  167058.63  3388.01
674462.70  167059.21  3388.04
674461.33  167059.76  3388.27
674459.94  167060.32  3388.37
674458.57  167060.87  3388.40
674457.17  167061.37  3388.45
674455.77  167061.84  3388.49
674454.36  167062.31  3388.56
674452.96  167062.78  3388.37
674451.54  167063.22  3388.20
674450.11  167063.63  3388.00
674448.68  167064.04  3387.85
674447.25  167064.45  3387.74
674445.82  167064.83  3387.67
674444.37  167065.18  3387.65
674442.92  167065.55  3387.63
674441.47  167065.90  3388.01
674440.02  167066.25  3388.35
674438.58  167066.58  3388.77
674437.14  167066.92  3389.20
674435.69  167067.25  3389.59
674434.25  167067.59  3390.01
674432.82  167067.94  3390.28
674431.39  167068.29  3390.50
674429.96  167068.64  3390.76
674428.52  167068.99  3391.03
674427.10  167069.36  3391.24
674425.68  167069.74  3391.38
674424.26  167070.11  3391.51
674422.83  167070.48  3391.86
674421.41  167070.85  3392.22
674420.00  167071.22  3392.52
674418.59  167071.60  3392.78
674417.18  167071.98  3393.06
674415.76  167072.35  3393.28
674414.35  167072.74  3393.51
674412.92  167073.15  3393.85
674411.50  167073.58  3394.23
674410.08  167073.99  3394.28
674408.65  167074.40  3394.32
674407.23  167074.84  3394.40
674405.81  167075.30  3393.89
674404.39  167075.75  3393.42
674402.97  167076.20  3392.95
674401.54  167076.65  3392.51
674400.12  167077.12  3392.08
674398.71  167077.62  3391.69
674397.30  167078.11  3392.02
674395.88  167078.59  3392.31
674394.47  167079.08  3392.60
674393.06  167079.57  3392.87
674391.66  167080.11  3393.17
674390.26  167080.63  3393.47
674388.85  167081.15  3393.69
674387.45  167081.67  3393.90
674386.05  167082.20  3394.06
674384.65  167082.74  3394.81
674383.27  167083.29  3395.49
674381.89  167083.85  3396.24
674380.50  167084.39  3396.92
674379.12  167084.94  3397.75
674377.74  167085.49  3398.54
674376.36  167086.09  3399.32
674374.99  167086.68  3400.09
674373.61  167087.27  3400.85
674372.23  167087.88  3401.64
674370.86  167088.47  3402.40
674369.49  167089.07  3403.19
674368.13  167089.70  3404.13
674366.76  167090.33  3405.12
674365.40  167090.95  3406.11
674364.04  167091.59  3407.18
674362.67  167092.21  3407.47
674361.32  167092.84  3408.05
674359.97  167093.49  3408.61
674358.60  167094.13  3409.16
674357.25  167094.77  3409.76
674355.90  167095.42  3410.42
674354.54  167096.06  3411.12
674353.18  167096.69  3411.76
674351.82  167097.32  3412.38
674350.45  167097.94  3413.05
674349.09  167098.56  3413.69
674347.73  167099.19  3414.06
674346.36  167099.81  3414.40
674344.99  167100.42  3414.72
674343.63  167101.04  3415.07
674342.25  167101.65  3415.42
674340.89  167102.26  3415.70
674339.52  167102.89  3415.99
674338.14  167103.47  3416.19
674336.75  167104.04  3416.45
674335.37  167104.61  3416.63
674333.99  167105.19  3416.91
674332.61  167105.77  3417.23
674331.21  167106.32  3417.48
674329.81  167106.84  3417.67
674328.40  167107.37  3417.85
674327.00  167107.88  3418.00
674325.60  167108.40  3417.81
674324.20  167108.92  3417.56
674322.79  167109.41  3417.25
674321.39  167109.90  3417.08
674319.98  167110.38  3416.84
674318.58  167110.87  3416.48
674317.17  167111.36  3416.12
674315.77  167111.86  3415.76
674314.36  167112.35  3415.43
674312.95  167112.84  3415.10
674311.55  167113.35  3414.84
674310.14  167113.84  3414.67
674308.76  167114.39  3414.51
674307.39  167114.99  3414.31
674306.02  167115.59  3413.89
674304.64  167116.19  3413.54
674303.27  167116.78  3413.18
674301.93  167117.44  3412.91
674300.60  167118.15  3412.75
674299.29  167118.87  3412.78
674297.97  167119.58  3412.81
674296.65  167120.29  3412.88
674295.35  167121.05  3413.00
674294.10  167121.87  3413.12
674292.85  167122.70  3413.28
674291.60  167123.53  3413.47
674290.34  167124.35  3413.61
674289.12  167125.22  3413.63
674287.97  167126.17  3413.68
674286.81  167127.10  3413.73
674285.65  167128.04  3413.83
674284.48  167128.99  3413.92
674283.37  167129.98  3413.98
674282.30  167131.01  3413.94
674281.21  167132.03  3413.89
674280.14  167133.06  3413.71
674279.06  167134.10  3413.50
674278.05  167135.17  3413.25
674277.05  167136.25  3412.97
674276.05  167137.34  3412.67
674275.03  167138.43  3412.28
674274.03  167139.51  3411.85
674273.08  167140.63  3411.49
674272.13  167141.75  3411.14
674271.16  167142.87  3410.74
674270.21  167143.99  3410.31
674269.26  167145.11  3409.89
674268.30  167146.23  3409.19
674267.33  167147.35  3409.35
674266.37  167148.47  3409.27
674265.41  167149.58  3409.15
674264.41  167150.67  3409.03
674263.40  167151.75  3408.85
674262.40  167152.83  3408.64
674261.39  167153.90  3408.48
674260.38  167154.97  3408.33
674259.30  167155.99  3408.10
674258.22  167157.00  3407.88
674257.13  167158.01  3407.36
674256.05  167159.03  3406.84
674254.91  167159.99  3406.36
674253.75  167160.92  3406.01
674252.59  167161.85  3405.62
674251.42  167162.78  3405.18
674250.23  167163.68  3404.77
674248.99  167164.51  3404.37
674247.75  167165.35  3403.96
674246.52  167166.20  3403.63
674245.27  167167.01  3403.28
674243.97  167167.75  3402.86
674242.68  167168.49  3402.40
674241.39  167169.23  3401.98
674240.10  167169.97  3401.51
674238.77  167170.64  3401.07
674237.46  167171.33  3400.64
674236.13  167172.00  3400.16
674234.82  167172.69  3399.69
674233.49  167173.34  3399.16
674232.16  167173.99  3398.60
674230.83  167174.63  3398.25
674229.51  167175.27  3397.94
674228.17  167175.92  3397.64
674226.83  167176.55  3397.27
674225.50  167177.19  3396.87
674224.15  167177.83  3396.49
674222.82  167178.46  3396.09
674221.49  167179.12  3395.68
674220.17  167179.78  3395.39
674218.85  167180.45  3395.03
674217.51  167181.10  3394.64
674216.19  167181.76  3394.20
674214.87  167182.45  3394.06
674213.56  167183.14  3393.47
674212.24  167183.84  3392.91
674210.92  167184.53  3392.46
674209.61  167185.21  3392.01
674208.30  167185.95  3391.53
674207.00  167186.67  3391.03
674205.70  167187.41  3390.54
674204.40  167188.14  3390.07
674203.10  167188.87  3389.58
674201.82  167189.64  3389.46
674200.55  167190.42  3389.43
674199.27  167191.20  3389.37
674198.00  167191.98  3389.29
674196.72  167192.76  3389.21
674195.47  167193.58  3389.14
674194.23  167194.40  3389.12
674192.98  167195.24  3389.10
674191.73  167196.07  3388.79
674190.48  167196.90  3388.53
674189.29  167197.78  3388.22
674188.08  167198.65  3387.94
674186.87  167199.52  3387.68
674185.66  167200.40  3387.44
674184.47  167201.30  3387.25
674183.29  167202.21  3387.02
674182.11  167203.13  3386.79
674180.95  167204.05  3386.59
674179.78  167204.96  3386.38
674178.63  167205.91  3386.14
674177.49  167206.85  3385.87
674176.35  167207.79  3385.54
674175.21  167208.74  3385.23
674174.08  167209.69  3384.96
674172.96  167210.65  3384.67
674171.83  167211.60  3384.41
674170.71  167212.56  3384.17
674169.58  167213.53  3383.89
674168.45  167214.48  3383.64
674167.32  167215.44  3383.45
674166.19  167216.40  3383.30
674165.04  167217.35  3383.19
674163.90  167218.31  3383.11
674162.76  167219.25  3382.89
674161.60  167220.18  3382.76
674160.44  167221.09  3382.66
674159.27  167222.00  3382.79
674158.10  167222.90  3382.77
674156.90  167223.77  3382.90
674155.70  167224.61  3382.92
674154.51  167225.45  3382.97
674153.31  167226.29  3383.05
674152.08  167227.09  3383.04
674150.86  167227.86  3382.96
674149.63  167228.64  3382.49
674148.39  167229.42  3381.96
674147.14  167230.15  3381.45
674145.85  167230.84  3380.96
674144.57  167231.53  3380.46
674143.28  167232.23  3379.95
674141.99  167232.91  3379.42
674140.67  167233.55  3378.95
674139.35  167234.20  3378.47
674138.03  167234.84  3378.46
674136.71  167235.49  3378.42
674135.37  167236.11  3378.46
674134.02  167236.72  3378.51
674132.67  167237.33  3378.55
674131.31  167237.93  3378.58
674129.96  167238.53  3378.62
674128.60  167239.12  3378.66
674127.23  167239.70  3378.68
674125.85  167240.27  3378.31
674124.49  167240.86  3377.91
674123.12  167241.43  3377.53
674121.75  167241.99  3377.15
674120.37  167242.56  3376.77
674118.99  167243.12  3376.39
674117.61  167243.67  3376.03
674116.23  167244.24  3375.66
674114.85  167244.79  3375.35
674113.47  167245.34  3375.59
674112.08  167245.89  3375.85
674110.70  167246.44  3376.07
674109.31  167246.99  3376.30
674107.94  167247.54  3376.53
674106.56  167248.10  3376.83
674105.18  167248.65  3377.11
674103.79  167249.20  3376.81
674102.41  167249.76  3376.53
674101.05  167250.33  3376.16
674099.69  167250.90  3375.74
674098.32  167251.47  3375.47
674096.95  167252.04  3375.15
674095.60  167252.63  3374.87
674094.26  167253.22  3374.57
674092.91  167253.83  3374.32
674091.55  167254.42  3373.90
674090.23  167255.05  3373.59
674088.92  167255.70  3373.07
674087.59  167256.35  3372.48
674086.28  167257.01  3371.96
674084.98  167257.69  3371.49
674083.71  167258.41  3370.90
674082.42  167259.13  3370.38
674081.14  167259.85  3369.91
674079.89  167260.62  3369.47
674078.66  167261.42  3369.05
674077.42  167262.21  3368.59
674076.19  167263.02  3368.10
674075.00  167263.89  3367.77
674073.81  167264.77  3367.45
674072.62  167265.63  3367.17
674071.45  167266.55  3366.84
674070.29  167267.48  3366.45
674069.12  167268.39  3366.25
674067.97  167269.32  3366.06
674066.83  167270.26  3365.84
674065.70  167271.19  3365.58
674064.55  167272.13  3365.18
674063.39  167273.03  3364.97
674062.23  167273.94  3364.78
674061.06  167274.85  3364.60
674059.88  167275.73  3364.41
674058.68  167276.58  3363.99
674057.49  167277.44  3363.71
674056.29  167278.30  3363.42
674055.06  167279.10  3363.05
674053.83  167279.91  3362.66
674052.60  167280.70  3362.21
674051.36  167281.50  3361.60
674050.09  167282.23  3361.18
674048.80  167282.95  3360.79
674047.52  167283.66  3360.43
674046.23  167284.38  3360.10
674044.92  167285.02  3359.75
674043.59  167285.65  3359.16
674042.25  167286.27  3358.67
674040.92  167286.90  3358.32
674039.58  167287.48  3358.08
674038.20  167288.00  3357.67
674036.82  167288.52  3357.35
674035.44  167289.04  3356.93
674034.06  167289.56  3356.35
674032.65  167289.99  3356.00
674031.24  167290.40  3355.64
674029.82  167290.82  3355.32
674028.42  167291.24  3354.96
674026.99  167291.63  3354.60
674025.56  167291.96  3354.09
674024.12  167292.29  3353.45
674022.68  167292.63  3353.04
674021.25  167292.96  3352.59
674019.81  167293.24  3352.11
674018.35  167293.50  3351.39
674016.91  167293.76  3350.64
674015.46  167294.02  3349.79
674014.02  167294.28  3348.87
674012.56  167294.49  3348.07
674011.10  167294.69  3347.25
674009.64  167294.90  3346.60
674008.19  167295.10  3345.92
674006.72  167295.29  3345.24
674005.26  167295.45  3344.48
674003.78  167295.62  3343.73
674002.32  167295.79  3343.03
674000.86  167295.95  3342.27
673999.38  167296.09  3341.53
673997.91  167296.22  3340.76
673996.44  167296.35  3339.94
673994.96  167296.47  3339.10
673993.49  167296.55  3338.26
673992.01  167296.62  3337.40
673990.53  167296.69  3336.53
673989.06  167296.76  3336.30
673987.58  167296.75  3336.08
673986.11  167296.75  3335.88
673984.63  167296.74  3335.66
673983.15  167296.72  3335.47
673981.67  167296.66  3335.30
673980.19  167296.59  3335.12
673978.71  167296.54  3334.95
673977.24  167296.45  3335.19
673975.77  167296.35  3335.42
673974.30  167296.24  3335.67
673972.84  167296.14  3335.86
673971.38  167296.03  3336.07
673969.92  167295.93  3336.22
673968.46  167295.82  3336.36
673967.00  167295.72  3336.48
673965.54  167295.63  3336.65
673964.07  167295.55  3336.77
673962.60  167295.46  3336.91
673961.13  167295.38  3337.16
673959.66  167295.30  3337.40
673958.19  167295.22  3337.62
673956.72  167295.13  3337.80
673955.24  167295.05  3338.07
673953.77  167294.96  3338.33
673952.29  167294.87  3338.49
673950.82  167294.78  3338.60
673949.35  167294.64  3338.67
673947.88  167294.50  3338.69
673946.42  167294.36  3338.77
673944.95  167294.22  3338.89
673943.50  167294.04  3338.90
673942.04  167293.86  3338.47
673940.59  167293.67  3337.90
673939.13  167293.48  3337.53
673937.68  167293.26  3337.57
673936.23  167293.02  3337.94
673934.77  167292.77  3338.06
673933.31  167292.53  3338.05
673931.87  167292.29  3338.67
673930.42  167291.98  3339.27
673928.98  167291.67  3339.81
673927.53  167291.37  3340.30
673926.08  167291.06  3340.11
673924.65  167290.72  3339.98
673923.20  167290.36  3339.91
673921.77  167290.00  3339.83
673920.32  167289.63  3340.28
673918.89  167289.27  3340.75
673917.45  167288.86  3341.23
673916.02  167288.46  3341.65
673914.57  167288.05  3341.53
673913.14  167287.64  3341.40
673911.70  167287.22  3341.12
673910.28  167286.77  3341.10
673908.84  167286.33  3340.94
673907.41  167285.88  3340.75
673905.98  167285.43  3340.98
673904.55  167284.99  3341.18
673903.12  167284.53  3341.33
673901.68  167284.08  3341.51
673900.25  167283.62  3341.62
673898.82  167283.18  3341.81
673897.39  167282.75  3342.29
673895.95  167282.32  3342.83
673894.51  167281.90  3343.27
673893.07  167281.49  3343.70
673891.62  167281.14  3344.21
673890.16  167280.79  3344.67
673888.71  167280.45  3345.31
673887.25  167280.10  3345.78
673885.78  167279.85  3345.63
673884.30  167279.61  3345.41
673882.83  167279.37  3345.23
673881.36  167279.14  3345.08
673879.86  167279.03  3344.94
673878.37  167278.94  3344.86
673876.87  167278.84  3344.70
673875.38  167278.78  3344.60
673873.88  167278.84  3344.40
673872.38  167278.90  3344.24
673870.89  167278.96  3344.11
673869.39  167279.10  3343.99
673867.91  167279.32  3343.83
673866.42  167279.55  3343.67
673864.94  167279.78  3343.49
673863.49  167280.13  3343.26
673862.03  167280.48  3343.25
673860.57  167280.84  3343.33
673859.15  167281.27  3343.38
673857.73  167281.74  3343.37
673856.30  167282.22  3343.32
673854.90  167282.74  3343.33
673853.52  167283.31  3343.34
673852.14  167283.89  3343.33
673850.76  167284.47  3343.26
673849.37  167285.04  3343.20
673847.98  167285.61  3343.43
673846.60  167286.18  3343.66
673845.19  167286.68  3343.87
673843.78  167287.19  3344.05
673842.36  167287.67  3344.30
673840.91  167288.06  3344.53
673839.46  167288.44  3344.68
673838.00  167288.80  3344.85
673836.52  167289.04  3345.05
673835.04  167289.27  3345.18
673833.56  167289.46  3345.25
673832.07  167289.54  3345.26
673830.56  167289.62  3345.28
673829.07  167289.65  3345.35
673827.58  167289.56  3345.42
673826.09  167289.46  3345.43
673824.60  167289.37  3345.41
673823.15  167289.13  3345.40
673821.68  167288.89  3345.43
673820.39  167288.68  3345.33
673819.54  167288.54  3345.94
673818.10  167288.19  3345.52
673816.67  167287.84  3345.03
673815.24  167287.49  3344.44
673813.80  167287.11  3343.85
673812.38  167286.69  3343.46
673810.97  167286.26  3343.12
673809.55  167285.83  3342.55
673808.13  167285.39  3341.99
673806.72  167284.94  3341.42
673805.30  167284.48  3341.13
673803.89  167284.04  3340.95
673802.48  167283.59  3340.89
673801.04  167283.14  3340.61
673799.62  167282.70  3340.33
673798.19  167282.26  3340.13
673796.77  167281.82  3339.88
673795.33  167281.43  3339.78
673793.88  167281.05  3339.90
673792.44  167280.66  3339.84
673791.00  167280.27  3339.65
673789.53  167279.94  3339.48
673788.07  167279.65  3339.34
673786.60  167279.36  3339.19
673785.13  167279.07  3339.26
673783.65  167278.86  3339.27
673782.16  167278.72  3339.19
673780.66  167278.57  3339.23
673779.18  167278.43  3339.29
673777.68  167278.35  3339.39
673776.18  167278.37  3339.63
673774.68  167278.38  3339.26
673773.18  167278.39  3340.01
673771.68  167278.44  3341.02
673770.19  167278.56  3340.32
673768.69  167278.68  3340.89
673767.20  167278.80  3340.92
673765.72  167278.94  3340.69
673764.23  167279.13  3340.34
673762.75  167279.31  3340.00
673761.27  167279.49  3339.71
673759.80  167279.69  3339.40
673758.32  167279.92  3339.10
673756.85  167280.15  3338.84
673755.38  167280.38  3338.56
673753.91  167280.62  3338.36
673752.45  167280.89  3338.14
673750.99  167281.16  3337.95
673749.53  167281.44  3337.78
673748.06  167281.72  3337.58
673746.61  167282.00  3337.33
673745.15  167282.29  3337.06
673743.69  167282.57  3336.94
673742.24  167282.85  3336.81
673740.77  167283.10  3336.76
673739.30  167283.36  3336.73
673737.83  167283.62  3336.61
673736.36  167283.87  3336.48
673734.89  167284.08  3336.31
673733.41  167284.29  3336.19
673731.94  167284.50  3336.00
673730.46  167284.68  3335.85
673728.97  167284.80  3335.65
673727.49  167284.92  3335.45
673725.99  167285.04  3335.30
673724.50  167285.13  3335.15
673723.01  167285.15  3335.12
673721.51  167285.17  3335.10
673720.02  167285.19  3334.68
673718.52  167285.18  3334.33
673717.02  167285.10  3333.98
673715.53  167285.01  3333.67
673714.03  167284.92  3333.40
673712.53  167284.82  3333.13
673711.05  167284.63  3332.83
673709.57  167284.44  3332.50
673708.08  167284.25  3332.21
673706.59  167284.06  3331.93
673705.13  167283.75  3331.66
673703.66  167283.44  3331.52
673702.21  167283.12  3331.38
673700.74  167282.79  3331.16
673699.29  167282.43  3330.96
673697.85  167282.03  3330.77
673696.40  167281.63  3330.57
673694.96  167281.22  3330.36
673693.52  167280.82  3330.21
673692.10  167280.35  3330.07
673690.69  167279.87  3329.92
673689.27  167279.38  3329.81
673687.84  167278.89  3329.86
673686.43  167278.40  3329.92
673685.02  167277.87  3330.01
673683.62  167277.34  3330.10
673682.22  167276.82  3330.20
673680.81  167276.28  3330.30
673679.41  167275.75  3330.39
673678.01  167275.21  3330.47
673676.61  167274.66  3330.53
673675.22  167274.11  3330.60
673673.82  167273.57  3330.66
673672.43  167273.02  3330.75
673671.03  167272.47  3330.82
673669.63  167271.92  3330.85
673668.24  167271.38  3330.87
673666.84  167270.84  3330.67
673665.44  167270.29  3330.44
673664.05  167269.74  3330.25
673662.65  167269.20  3330.04
673661.25  167268.65  3329.86
673659.85  167268.12  3329.59
673658.45  167267.58  3329.35
673657.05  167267.05  3329.10
673655.64  167266.54  3328.81
673654.23  167266.04  3328.55
673652.81  167265.54  3328.28
673651.40  167265.05  3328.07
673649.99  167264.55  3327.96
673648.57  167264.07  3327.88
673647.14  167263.58  3327.75
673645.72  167263.10  3327.62
673644.30  167262.62  3327.50
673642.88  167262.14  3327.35
673641.46  167261.66  3327.27
673640.04  167261.18  3327.19
673638.62  167260.70  3327.01
673637.20  167260.22  3326.82
673635.77  167259.72  3326.62
673634.36  167259.22  3326.39
673632.95  167258.73  3326.16
673631.53  167258.23  3325.99
673630.12  167257.73  3325.72
673628.72  167257.20  3325.31
673627.32  167256.67  3324.89
673625.91  167256.13  3324.44
673624.51  167255.61  3324.01
673623.11  167255.07  3323.52
673621.72  167254.52  3323.17
673620.32  167253.98  3323.15
673618.93  167253.43  3323.00
673617.53  167252.89  3322.86
673616.14  167252.34  3322.74
673614.74  167251.79  3322.59
673613.35  167251.23  3322.50
673611.95  167250.68  3322.53
673610.56  167250.14  3322.40
673609.16  167249.58  3322.19
673607.77  167249.03  3321.79
673606.37  167248.47  3321.44
673604.97  167247.92  3321.04
673603.58  167247.39  3320.84
673602.18  167246.84  3320.67
673600.78  167246.30  3320.28
673599.38  167245.75  3319.86
673597.97  167245.24  3319.56
673596.57  167244.74  3319.27
673595.16  167244.22  3318.92
673593.75  167243.71  3318.86
673592.34  167243.20  3318.74
673590.92  167242.71  3318.39
673589.50  167242.22  3317.97
673588.08  167241.73  3317.54
673586.67  167241.24  3317.18
673585.24  167240.76  3316.79
673583.82  167240.31  3316.58
673582.39  167239.86  3316.45
673580.96  167239.40  3316.07
673579.52  167238.95  3315.67
673578.09  167238.53  3315.28
673576.66  167238.11  3314.87
673575.22  167237.70  3314.42
673573.77  167237.28  3313.89
673572.34  167236.87  3313.68
673570.89  167236.48  3313.35
673569.44  167236.12  3312.75
673567.99  167235.76  3312.14
673566.54  167235.40  3311.58
673565.08  167235.05  3311.05
673563.63  167234.72  3310.56
673562.16  167234.45  3310.27
673560.70  167234.17  3310.08
673559.24  167233.90  3309.67
673557.78  167233.62  3309.23
673556.31  167233.37  3308.82
673554.83  167233.16  3308.41
673553.37  167232.94  3307.98
673551.90  167232.73  3307.65
673550.43  167232.51  3307.61
673548.96  167232.34  3307.37
673547.49  167232.21  3307.03
673546.02  167232.07  3306.75
673544.55  167231.93  3306.50
673543.08  167231.80  3306.26
673541.61  167231.71  3306.14
673540.15  167231.63  3306.21
673538.69  167231.55  3306.09
673537.22  167231.46  3305.95
673535.76  167231.48  3305.87
673534.29  167231.50  3305.82
673532.83  167231.52  3305.94
673531.38  167231.62  3306.04
673529.93  167231.75  3305.92
673528.47  167231.88  3305.87
673527.05  167232.15  3305.98
673525.62  167232.44  3306.10
673524.26  167232.96  3306.43
673523.61  167233.95  3307.34
   674655.75   165400.52   3321.71
   674655.94   165402.00   3321.98
   674656.14   165403.48   3322.22
   674656.33   165404.98   3322.50
   674656.52   165406.46   3322.73
   674656.70   165407.96   3322.97
   674656.81   165409.45   3322.67
   674656.93   165410.94   3322.39
   674657.05   165412.44   3322.12
   674657.17   165413.93   3321.85
   674657.28   165415.43   3321.60
   674657.36   165416.93   3321.28
   674657.42   165418.43   3320.99
   674657.47   165419.92   3320.65
   674657.53   165421.42   3320.29
   674657.58   165422.92   3319.92
   674657.64   165424.42   3319.79
   674657.65   165425.91   3319.60
   674657.65   165427.41   3319.43
   674657.66   165428.91   3319.26
   674657.66   165430.40   3319.06
   674657.67   165431.90   3318.88
   674657.67   165433.39   3318.71
   674657.63   165434.89   3318.47
   674657.59   165436.38   3318.23
   674657.55   165437.88   3318.04
   674657.52   165439.37   3317.82
   674657.48   165440.86   3317.60
   674657.44   165442.36   3317.40
   674657.36   165443.85   3317.57
   674657.30   165445.34   3317.74
   674657.22   165446.83   3317.90
   674657.15   165448.32   3318.05
   674657.07   165449.81   3318.20
   674656.99   165451.31   3318.37
   674656.88   165452.80   3318.49
   674656.78   165454.29   3318.69
   674656.67   165455.78   3318.24
   674656.56   165457.27   3317.78
   674656.46   165458.75   3317.31
   674656.35   165460.23   3316.85
   674656.21   165461.72   3316.37
   674656.08   165463.21   3315.90
   674655.95   165464.70   3315.49
   674655.82   165466.19   3315.06
   674655.69   165467.67   3314.61
   674655.56   165469.16   3314.67
   674655.40   165470.64   3314.73
   674655.25   165472.13   3314.79
   674655.09   165473.62   3314.86
   674654.94   165475.09   3314.88
   674654.79   165476.58   3314.87
   674654.63   165478.07   3314.92
   674654.46   165479.56   3314.86
   674654.29   165481.03   3314.84
   674654.12   165482.52   3314.79
   674653.95   165484.00   3314.74
   674653.78   165485.49   3314.72
   674653.61   165486.97   3314.77
   674653.43   165488.45   3314.78
   674653.24   165489.94   3314.81
   674653.05   165491.43   3314.90
   674652.86   165492.90   3314.94
   674652.67   165494.39   3315.04
   674652.48   165495.87   3315.12
   674652.28   165497.35   3315.14
   674652.07   165498.84   3315.22
   674651.87   165500.32   3315.30
   674651.66   165501.80   3315.32
   674651.46   165503.28   3315.31
   674651.26   165504.77   3315.38
   674651.04   165506.25   3315.33
   674650.83   165507.73   3315.26
   674650.61   165509.21   3315.22
   674650.39   165510.70   3315.17
   674650.18   165512.17   3315.11
   674649.96   165513.66   3315.09
   674649.74   165515.13   3315.01
   674649.52   165516.62   3314.91
   674649.30   165518.10   3314.89
   674649.09   165519.58   3314.90
   674648.87   165521.07   3314.85
   674648.65   165522.55   3314.83
   674648.43   165524.03   3315.04
   674648.22   165525.52   3315.23
   674648.00   165527.01   3315.47
   674647.79   165528.49   3315.61
   674647.57   165529.97   3315.75
   674647.36   165531.46   3315.93
   674647.15   165532.94   3316.16
   674646.95   165534.43   3316.08
   674646.75   165535.92   3315.98
   674646.54   165537.40   3315.85
   674646.34   165538.89   3315.72
   674646.15   165540.38   3315.60
   674645.97   165541.87   3315.47
   674645.78   165543.36   3315.92
   674645.60   165544.85   3316.37
   674645.42   165546.34   3316.80
   674645.23   165547.82   3317.21
   674645.07   165549.32   3317.65
   674644.91   165550.81   3318.03
   674644.74   165552.31   3317.80
   674644.58   165553.80   3317.56
   674644.42   165555.28   3317.32
   674644.26   165556.78   3317.07
   674644.12   165558.27   3316.82
   674643.97   165559.77   3316.91
   674643.83   165561.25   3316.99
   674643.68   165562.75   3317.08
   674643.54   165564.24   3317.20
   674643.43   165565.74   3317.28
   674643.31   165567.24   3317.38
   674643.19   165568.74   3317.07
   674643.07   165570.22   3316.77
   674642.96   165571.72   3316.46
   674642.84   165573.22   3316.16
   674642.74   165574.72   3315.86
   674642.64   165576.22   3315.58
   674642.53   165577.71   3315.30
   674642.43   165579.21   3315.57
   674642.33   165580.71   3315.81
   674642.23   165582.21   3316.08
   674642.13   165583.70   3315.90
   674642.04   165585.20   3315.73
   674641.94   165586.69   3315.58
   674641.85   165588.19   3315.41
   674641.75   165589.69   3315.31
   674641.65   165591.19   3315.13
   674641.56   165592.69   3314.99
   674641.46   165594.19   3314.85
   674641.37   165595.69   3314.72
   674641.27   165597.18   3314.57
   674641.17   165598.67   3314.46
   674641.07   165600.17   3314.33
   674640.97   165601.67   3314.93
   674640.87   165603.17   3315.56
   674640.76   165604.67   3316.17
   674640.66   165606.16   3316.78
   674640.55   165607.66   3316.98
   674640.44   165609.16   3317.16
   674640.32   165610.64   3317.37
   674640.20   165612.14   3317.59
   674640.09   165613.64   3317.81
   674639.97   165615.14   3318.02
   674639.84   165616.63   3318.25
   674639.71   165618.13   3318.54
   674639.58   165619.62   3318.84
   674639.44   165621.11   3319.14
   674639.31   165622.60   3319.43
   674639.18   165624.10   3319.73
   674639.02   165625.59   3320.00
   674638.87   165627.09   3320.31
   674638.72   165628.57   3320.60
   674638.57   165630.06   3320.89
   674638.42   165631.56   3320.68
   674638.26   165633.05   3320.49
   674638.10   165634.53   3320.26
   674637.93   165636.03   3320.06
   674637.75   165637.52   3319.87
   674637.58   165639.01   3319.65
   674637.41   165640.49   3319.63
   674637.22   165641.99   3319.61
   674637.04   165643.48   3319.60
   674636.85   165644.97   3319.57
   674636.67   165646.45   3319.54
   674636.49   165647.94   3319.48
   674636.29   165649.43   3319.39
   674636.09   165650.91   3319.33
   674635.89   165652.40   3319.23
   674635.69   165653.89   3319.17
   674635.49   165655.38   3319.09
   674635.29   165656.86   3318.74
   674635.08   165658.35   3318.36
   674634.88   165659.84   3317.99
   674634.67   165661.32   3317.61
   674634.46   165662.81   3317.22
   674634.25   165664.30   3316.86
   674634.04   165665.78   3316.51
   674633.83   165667.27   3316.24
   674633.62   165668.76   3315.95
   674633.41   165670.24   3315.68
   674633.21   165671.73   3315.39
   674633.00   165673.22   3315.07
   674632.80   165674.70   3314.73
   674632.59   165676.19   3314.54
   674632.39   165677.68   3314.33
   674632.20   165679.15   3314.05
   674632.01   165680.64   3313.76
   674631.82   165682.14   3313.47
   674631.63   165683.63   3313.17
   674631.43   165685.11   3312.84
   674631.25   165686.60   3312.56
   674631.09   165688.09   3312.30
   674630.92   165689.57   3312.28
   674630.75   165691.06   3312.24
   674630.58   165692.55   3312.15
   674630.42   165694.05   3312.02
   674630.27   165695.54   3311.86
   674630.12   165697.02   3311.20
   674629.97   165698.52   3310.62
   674629.82   165700.01   3310.06
   674629.68   165701.50   3309.43
   674629.55   165702.99   3308.95
   674629.41   165704.48   3308.52
   674629.28   165705.97   3308.16
   674629.15   165707.46   3307.83
   674629.02   165708.95   3307.52
   674628.90   165710.45   3307.17
   674628.77   165711.94   3306.86
   674628.65   165713.42   3306.52
   674628.53   165714.91   3306.17
   674628.41   165716.41   3305.80
   674628.29   165717.90   3305.41
   674628.17   165719.39   3305.02
   674628.05   165720.88   3304.63
   674627.93   165722.37   3304.23
   674627.81   165723.86   3303.82
   674627.69   165725.35   3303.40
   674627.58   165726.84   3302.97
   674627.46   165728.34   3302.56
   674627.34   165729.83   3302.14
   674627.22   165731.33   3301.69
   674627.09   165732.81   3301.33
   674626.97   165734.31   3300.94
   674626.84   165735.80   3300.53
   674626.71   165737.29   3300.10
   674626.59   165738.79   3299.68
   674626.46   165740.28   3299.19
   674626.32   165741.77   3298.72
   674626.18   165743.27   3298.24
   674626.05   165744.76   3297.78
   674625.91   165746.26   3297.33
   674625.77   165747.75   3296.87
   674625.62   165749.25   3296.34
   674625.47   165750.73   3295.84
   674625.32   165752.23   3295.29
   674625.17   165753.72   3294.76
   674625.02   165755.22   3294.20
   674624.85   165756.70   3294.02
   674624.68   165758.19   3293.78
   674624.51   165759.69   3293.49
   674624.35   165761.18   3293.17
   674624.18   165762.66   3292.82
   674624.00   165764.16   3292.49
   674623.81   165765.65   3292.18
   674623.62   165767.14   3291.83
   674623.42   165768.62   3291.61
   674623.23   165770.11   3291.41
   674623.04   165771.60   3291.04
   674622.84   165773.08   3290.62
   674622.64   165774.57   3290.17
   674622.44   165776.06   3289.71
   674622.24   165777.55   3289.20
   674622.04   165779.03   3288.72
   674621.85   165780.52   3288.42
   674621.65   165782.01   3288.09
   674621.45   165783.49   3287.61
   674621.26   165784.98   3287.07
   674621.06   165786.47   3286.52
   674620.87   165787.95   3285.99
   674620.69   165789.44   3285.60
   674620.51   165790.93   3285.18
   674620.33   165792.43   3285.04
   674620.15   165793.91   3284.82
   674619.97   165795.40   3284.44
   674619.81   165796.89   3284.01
   674619.65   165798.38   3283.59
   674619.49   165799.87   3283.17
   674619.33   165801.36   3282.78
   674619.18   165802.85   3282.54
   674619.05   165804.35   3282.15
   674618.93   165805.85   3281.79
   674618.80   165807.33   3281.35
   674618.68   165808.83   3281.01
   674618.56   165810.33   3280.71
