673521.06  162454.27  2670.44
673514.49  162460.94  2662.82
673510.30  162465.19  2655.89
673504.33  162471.26  2643.41
673490.58  162485.22  2620.55
673475.64  162500.39  2599.77
673459.50  162516.77  2580.37
673450.53  162525.88  2572.05
673442.76  162533.76  2565.82
673427.82  162548.94  2539.49
673415.26  162561.68  2524.25
673405.10  162572.00  2511.08
673389.56  162587.77  2481.98
673373.42  162604.16  2466.05
673359.68  162618.12  2448.73
673341.74  162636.32  2435.56
673316.64  162661.81  2421.71
673296.91  162681.83  2413.39
673278.98  162700.04  2405.77
673265.23  162714.00  2403.69
673240.73  162738.88  2402.31
673228.17  162751.62  2407.16
673215.02  162764.97  2413.39
673205.46  162774.68  2421.71
673192.91  162787.42  2429.33
673173.18  162807.45  2452.19
673160.63  162820.19  2469.51
673142.70  162838.40  2489.61
673128.35  162852.96  2508.31
673116.99  162864.49  2522.86
673104.44  162877.24  2540.18
673091.89  162889.98  2557.50
673078.74  162903.33  2574.13
673069.77  162912.43  2590.76
673060.21  162922.14  2604.62
673044.67  162937.92  2630.94
673032.71  162950.06  2646.88
673024.35  162958.55  2660.74
672477.05  162753.73  2494.45
672478.46  162734.88  2485.45
672479.64  162719.08  2481.98
672481.05  162700.22  2477.13
672482.38  162682.38  2473.67
672484.36  162655.88  2472.28
672485.58  162639.57  2472.98
672486.83  162622.75  2474.36
672488.93  162594.72  2480.60
672490.98  162567.20  2491.68
672492.51  162546.81  2496.53
672494.30  162522.86  2500.00
672495.67  162504.51  2501.38
672497.04  162486.17  2503.46
672499.06  162459.15  2508.31
672500.47  162440.30  2509.70
672502.03  162419.40  2513.16
672503.63  162398.00  2505.54
672504.27  162389.33  2503.46
671723.99  161519.29  2513.39
671739.48  161518.87  2497.46
671754.98  161518.44  2484.99
671771.67  161517.99  2469.74
671789.55  161517.50  2457.97
671806.24  161517.05  2446.19
671822.93  161516.59  2436.49
671840.81  161516.10  2428.87
671858.69  161515.62  2420.55
671875.38  161515.16  2414.32
671893.26  161514.67  2406.00
671911.14  161514.18  2401.15
671927.83  161513.73  2396.99
671944.52  161513.27  2394.22
671962.40  161512.79  2390.76
671979.09  161512.33  2388.68
671996.97  161511.84  2387.30
672013.66  161511.39  2385.91
672031.54  161510.90  2385.22
672043.46  161510.57  2384.52
672056.57  161510.22  2381.06
672074.45  161509.73  2379.67
672089.95  161509.31  2374.13
672110.21  161508.75  2363.05
672128.10  161508.27  2357.50
672155.51  161507.52  2349.19
672173.39  161507.03  2346.42
672199.62  161506.31  2341.57
672225.84  161505.60  2339.49
672243.73  161505.11  2338.10
672261.61  161504.62  2338.10
672279.49  161504.14  2338.10
672297.37  161503.65  2338.80
672317.63  161503.10  2338.80
672331.94  161502.70  2340.18
672342.67  161502.41  2341.57
672361.74  161501.89  2345.03
672385.58  161501.24  2345.03
672410.61  161500.56  2346.42
672428.49  161500.07  2348.50
672438.03  161499.81  2351.27
672465.45  161499.06  2352.65
672492.87  161498.31  2356.81
672519.09  161497.60  2362.35
672547.70  161496.82  2372.05
672566.77  161496.30  2380.37
672582.27  161495.88  2387.30
672601.34  161495.36  2394.92
672618.03  161494.90  2400.46
672641.87  161494.25  2414.32
672656.18  161493.86  2424.71
672672.87  161493.40  2435.79
672687.17  161493.01  2446.88
672703.86  161492.56  2460.74
672701.66  160754.32  2406.00
672684.75  160752.18  2394.92
672667.85  160750.04  2386.60
672650.11  160747.80  2378.98
672639.97  160746.52  2376.90
672623.07  160744.38  2365.12
672607.01  160742.35  2350.57
672587.57  160739.89  2341.57
672569.83  160737.64  2333.95
672552.08  160735.40  2326.32
672533.49  160733.05  2322.17
672523.35  160731.76  2319.40
672506.45  160729.62  2309.00
672488.70  160727.38  2300.00
672466.73  160724.60  2291.68
672450.67  160722.57  2280.60
672433.77  160720.43  2271.59
672415.18  160718.08  2261.89
672397.44  160715.83  2249.42
672378.85  160713.48  2241.80
672361.10  160711.24  2232.79
672341.66  160708.78  2227.25
672316.31  160705.57  2220.32
672296.03  160703.00  2217.55
672278.28  160700.76  2216.86
672251.24  160697.34  2219.63
672226.74  160694.24  2224.48
672204.76  160691.46  2236.26
672187.02  160689.21  2254.27
672169.27  160686.97  2272.28
672149.84  160684.51  2286.14
672132.93  160682.37  2297.92
672113.50  160679.91  2313.85
672094.91  160677.56  2326.32
672076.32  160675.21  2338.10
672058.57  160672.96  2354.04
672039.13  160670.51  2368.59
672020.54  160668.15  2386.60
672001.95  160665.80  2401.84
672476.42  159896.13  2284.99
672493.35  159888.10  2270.67
672510.28  159880.07  2258.66
672521.06  159874.96  2248.96
672528.76  159871.31  2239.26
672531.83  159869.85  2240.18
672541.07  159865.47  2233.72
672553.39  159859.64  2229.10
672584.94  159844.68  2222.63
672601.10  159837.01  2222.17
672618.04  159828.99  2218.01
672633.43  159821.69  2212.93
672648.06  159814.75  2211.55
672659.60  159809.28  2208.31
672679.61  159799.79  2200.92
672694.24  159792.86  2199.54
672713.48  159783.74  2200.00
672738.11  159772.06  2201.38
672764.28  159759.66  2205.54
672782.75  159750.90  2212.93
672798.91  159743.24  2212.93
672827.39  159729.74  2212.93
672835.09  159726.09  2212.93
672852.02  159718.06  2209.70
672869.72  159709.67  2209.70
672887.42  159701.27  2208.77
672903.59  159693.61  2210.62
672927.45  159682.30  2217.09
672944.38  159674.27  2221.71
672953.62  159669.89  2224.94
672970.55  159661.87  2231.41
672986.71  159654.20  2239.72
673002.11  159646.91  2248.03
673012.88  159641.80  2256.35
673022.12  159637.42  2262.82
673029.04  159634.13  2267.43
673033.66  159631.95  2269.74
673045.98  159626.11  2270.67
672963.79  159489.31  2262.35
672946.97  159493.30  2249.54
672929.56  159497.42  2241.57
672912.16  159501.54  2234.64
672891.27  159506.48  2225.98
672873.28  159510.74  2218.36
672853.55  159515.41  2214.55
672834.41  159519.95  2212.12
672817.58  159523.93  2208.66
672805.98  159526.68  2205.20
672794.95  159529.29  2198.27
672783.35  159532.04  2190.64
672766.52  159536.02  2180.95
672749.12  159540.14  2175.06
672731.13  159544.40  2167.78
672719.53  159547.15  2165.01
672699.22  159551.96  2168.47
672683.55  159555.67  2176.79
672664.99  159560.06  2184.06
672643.52  159565.15  2190.30
672627.27  159568.99  2198.27
672615.67  159571.74  2205.89
672606.97  159573.80  2209.01
672588.98  159578.06  2208.31
672569.83  159582.59  2212.82
672553.01  159586.58  2219.40
672542.56  159589.05  2224.25
672530.96  159591.80  2234.64
672519.35  159594.55  2236.37
672501.95  159598.67  2239.14
672485.70  159602.51  2243.99
672446.96  159487.19  2231.87
672458.72  159476.57  2219.17
672467.06  159469.03  2209.24
672479.95  159457.38  2195.15
672486.78  159451.21  2188.68
672492.46  159446.07  2185.68
672500.81  159438.53  2182.45
672512.18  159428.25  2182.22
672516.73  159424.14  2181.99
672524.69  159416.94  2178.06
672530.00  159412.15  2174.36
672542.13  159401.18  2170.44
672560.33  159384.73  2166.97
672580.05  159366.91  2168.36
672591.80  159356.29  2172.98
672604.70  159344.64  2178.98
672616.45  159334.01  2187.76
672625.17  159326.13  2192.15
672638.06  159314.48  2197.23
672653.99  159300.09  2204.39
672667.26  159288.09  2208.54
672675.22  159280.90  2211.78
672686.97  159270.27  2213.39
672699.11  159259.31  2216.86
672712.38  159247.31  2219.86
672726.40  159234.63  2226.79
672658.48  159166.05  2233.31
672645.91  159175.69  2225.81
672635.37  159183.78  2217.15
672633.34  159185.33  2215.99
672621.17  159194.67  2212.24
672607.79  159204.93  2211.66
672592.78  159216.44  2209.93
672576.97  159228.57  2202.42
672565.21  159237.58  2201.27
672559.53  159241.94  2199.25
672546.55  159251.89  2192.32
672536.01  159259.98  2183.37
672526.28  159267.44  2175.86
672512.49  159278.02  2167.49
672497.89  159289.21  2161.43
672488.97  159296.06  2159.70
672473.96  159307.56  2164.32
672468.69  159311.61  2172.98
672460.98  159317.52  2178.17
672445.17  159329.65  2181.93
672433.00  159338.98  2184.53
672416.78  159351.42  2190.88
672407.04  159358.88  2198.38
