672208.606  159116.376  2218.520  21
672167.043  159138.524  2216.780  22
672171.939  159164.338  2209.246  22
672169.469  159182.136  2209.223  22
672158.472  159208.631  2210.157  22
672157.164  159222.742  2209.261  22
672160.752  159227.302  2208.714  22
672166.930  159228.134  2208.702  22
672174.514  159230.995  2208.717  22
672170.965  159239.506  2208.747  22
672174.720  159246.454  2208.763  22
672207.513  159260.280  2208.793  22
672223.309  159263.902  2208.823  22
672242.113  159270.435  2208.838  22
672261.107  159274.915  2208.869  22
672265.371  159284.756  2208.960  22
672270.781  159299.448  2209.005  22
672280.916  159282.706  2209.142  22
672297.244  159275.941  2209.203  22
672315.380  159301.302  2209.233  22
672332.334  159335.696  2209.248  22
672345.255  159347.074  2209.248  22
672354.343  159356.975  2222.718  22
672378.998  159372.978  2235.457  22
672382.858  159399.731  2246.345  22
672391.732  159423.585  2250.264  22
672396.803  159448.898  2256.492  22
672386.725  159442.226  2256.017  22
672397.687  159467.741  2262.925  22
672403.455  159495.318  2265.848  22
672387.714  159493.900  2266.893  22
672392.603  159506.300  2267.442  22
672405.982  159528.071  2273.042  22
672411.839  159560.271  2276.908  22
672434.125  159644.154  2286.789  22
672439.047  159672.946  2291.090  22
672444.953  159718.564  2302.747  22
672443.744  159749.288  2308.211  22
672431.239  159764.128  2312.724  22
672415.176  159764.319  2317.536  22
672412.848  159781.052  2319.192  22
672407.769  159803.740  2317.045  22
672411.217  159819.587  2319.800  22
672398.847  159828.789  2319.272  22
672392.568  159835.107  2316.581  22
672394.140  159851.642  2317.242  22
672404.500  159864.119  2324.676  22
672408.317  159886.684  2329.942  22
672403.430  159918.922  2332.342  22
672398.342  159945.879  2339.092  22
672392.248  159972.527  2342.884  22
672383.595  159986.776  2346.030  22
672371.797  159989.346  2347.192  22
672357.120  159996.912  2345.456  22
672356.375  160017.975  2347.065  22
672353.634  160037.301  2351.756  22
672341.606  160055.377  2353.896  22
672339.628  160063.689  2353.746  22
672330.078  160083.418  2359.953  22
672329.215  160108.999  2366.226  22
672323.378  160138.000  2374.854  22
672309.939  160157.800  2382.690  22
672294.503  160172.626  2391.650  22
672283.995  160180.363  2395.550  22
672261.403  160176.540  2402.786  22
672229.257  160172.478  2413.639  22
672229.165  160197.657  2418.070  22
672209.221  160191.794  2418.540  22
672213.690  160212.911  2418.143  22
672210.417  160234.257  2417.546  22
672200.770  160251.303  2421.212  22
672186.552  160283.235  2426.747  22
672164.247  160310.276  2433.827  22
672121.164  160358.117  2441.639  22
672094.734  160395.687  2449.889  22
672070.094  160425.573  2452.912  22
672049.379  160457.334  2455.346  22
672034.695  160484.047  2456.291  22
672017.923  160528.638  2458.068  22
672003.004  160569.518  2458.938  22
671992.507  160599.467  2460.790  22
671982.312  160629.875  2463.404  22
671979.791  160654.267  2465.820  22
671982.116  160689.201  2468.047  22
671974.681  160752.643  2475.491  22
671969.930  160778.769  2479.191  22
671959.215  160812.449  2485.047  22
671969.475  160837.166  2486.694  22
671968.355  160879.025  2489.695  22
671955.364  160900.505  2491.937  22
671945.972  160921.327  2494.923  22
671924.380  160973.233  2503.827  22
671908.937  161003.024  2508.668  22
671892.682  161025.753  2513.765  22
671855.663  161068.205  2523.362  22
671835.929  161096.822  2527.915  22
671825.146  161121.008  2531.470  22
671802.860  161156.677  2541.212  22
671784.993  161183.310  2547.523  22
671766.137  161218.737  2554.663  22
671701.378  161206.817  2570.015  22
671659.988  161260.594  2581.364  22
671612.737  161291.055  2595.930  22
671607.213  161331.558  2594.029  22
671658.897  161366.330  2576.584  22
671668.580  161420.535  2571.264  22
671671.302  161483.281  2569.747  22
671664.263  161523.383  2575.128  22
671647.943  161577.978  2582.115  22
671643.319  161630.640  2587.881  22
671657.423  161669.255  2585.098  22
671700.836  161708.873  2577.577  22
671730.478  161789.014  2579.076  22
671743.576  161864.588  2583.534  22
671770.819  161958.948  2584.150  22
671781.562  162032.924  2586.418  22
671800.808  162099.609  2588.635  22
671829.529  162168.145  2589.962  22
671862.327  162234.595  2595.550  22
671870.254  162303.056  2602.833  22
671878.990  162343.093  2607.946  22
671871.279  162397.390  2624.738  22
671884.427  162451.598  2619.854  22
671896.207  162502.902  2613.265  22
671910.392  162548.875  2609.904  22
671924.298  162601.878  2607.198  22
671943.141  162651.822  2601.339  22
671964.634  162701.364  2599.055  22
671999.570  162743.288  2606.661  22
672026.569  162791.099  2604.417  22
672057.036  162832.371  2615.822  22
672084.303  162853.641  2619.853  22
672117.785  162847.953  2595.290  22
672148.417  162858.682  2602.780  22
672191.416  162880.991  2597.103  22
672221.240  162895.042  2595.737  22
672240.519  162909.536  2605.978  22
672266.239  162911.449  2613.096  22
672302.213  162909.718  2617.908  22
672341.999  162913.152  2626.016  22
672384.207  162896.691  2634.301  22
672406.298  162875.124  2629.029  22
672437.969  162881.736  2628.080  22
672502.172  162899.143  2631.512  22
672522.475  162894.171  2633.243  22
672554.200  162891.078  2637.696  22
672599.169  162890.530  2641.291  22
672638.499  162897.591  2645.419  22
672664.547  162901.020  2648.347  22
672697.024  162897.459  2656.270  22
672722.467  162888.846  2665.860  22
672755.490  162903.302  2684.187  22
672790.316  162928.218  2699.193  22
672820.173  162950.597  2708.617  22
672847.085  162969.525  2713.222  22
672868.191  162991.879  2722.517  22
672897.529  163022.169  2729.916  22
672916.201  163041.832  2735.651  22
672905.754  163056.289  2744.620  22
672930.187  163084.571  2755.406  22
672954.423  163122.322  2764.509  22
672972.510  163150.060  2773.498  22
672985.213  163161.379  2773.759  22
672989.548  163187.506  2784.567  22
673006.338  163216.251  2790.728  22
673021.063  163251.063  2797.426  22
673029.869  163280.227  2803.865  22
673025.246  163299.367  2808.971  22
673012.331  163307.963  2814.139  22
673024.757  163333.164  2816.836  22
673043.069  163360.150  2814.080  22
673045.476  163384.385  2817.559  22
673040.128  163413.751  2826.020  22
673057.407  163444.118  2826.217  22
673041.225  163470.725  2839.093  22
673017.419  163449.156  2846.043  22
673002.879  163471.332  2857.717  22
672990.078  163493.121  2869.129  22
672986.572  163530.220  2881.721  22
673031.846  163564.393  2869.753  22
673050.991  163590.964  2862.856  22
673050.795  163619.682  2866.870  22
673033.401  163637.335  2878.851  22
673003.908  163648.167  2889.998  22
672957.427  163620.821  2907.975  22
672924.530  163613.274  2928.353  22
672872.586  163557.751  2940.985  22
672829.995  163527.734  2944.849  22
672791.752  163496.576  2942.916  22
672777.430  163489.864  2938.910  22
672712.669  163465.189  2932.881  22
672696.948  163474.037  2935.376  22
672676.711  163492.933  2941.729  22
672668.240  163515.098  2951.666  22
672651.785  163547.306  2968.675  22
672646.956  163570.148  2980.758  22
672642.478  163603.612  3000.292  22
672658.944  163636.304  3012.746  22
672670.835  163668.850  3021.518  22
672668.200  163694.225  3029.816  22
672651.215  163723.071  3047.789  22
672652.881  163721.548  3047.531  22
672647.405  163723.700  3052.012  22
672652.663  163756.421  3052.500  22
672658.036  163780.491  3051.075  22
672651.589  163791.197  3058.490  22
672646.154  163796.798  3063.991  22
672651.888  163827.438  3056.987  22
672671.552  163847.543  3048.362  22
672693.634  163878.482  3037.108  22
672705.589  163898.575  3030.947  22
672738.083  163927.629  3007.209  22
672726.349  163956.608  3012.102  22
672707.787  163975.034  3018.564  22
672691.025  163986.079  3025.310  22
672671.883  163992.538  3033.759  22
672642.228  163991.529  3047.621  22
672603.439  163993.992  3064.310  22
672590.697  163993.877  3069.195  22
672570.293  164003.272  3070.285  22
672554.177  164015.004  3069.598  22
672534.844  164015.593  3075.762  22
672510.414  164021.891  3081.954  22
672483.191  164026.721  3085.590  22
672449.327  164028.935  3097.798  22
672423.531  164032.993  3101.454  22
672404.684  164042.270  3102.550  22
672384.456  164057.059  3102.950  22
672366.491  164062.602  3109.205  22
672354.296  164068.164  3110.335  22
672333.246  164080.963  3110.174  22
672309.692  164102.046  3110.694  22
672287.853  164110.273  3113.423  22
672269.774  164123.087  3108.714  22
672261.521  164136.478  3098.307  22
672250.255  164144.382  3092.832  22
672248.660  164153.283  3092.753  22
672239.726  164159.051  3096.733  22
672230.259  164156.860  3103.316  22
672217.449  164168.758  3104.149  22
672202.635  164178.978  3110.984  22
672197.104  164190.861  3115.097  22
672187.013  164193.800  3123.036  22
672177.534  164219.130  3134.765  22
672180.199  164237.646  3136.700  22
672175.506  164254.018  3142.253  22
672174.684  164270.462  3146.795  22
672166.013  164321.212  3158.352  22
672165.627  164339.621  3158.974  22
672164.592  164353.985  3159.977  22
672160.332  164367.585  3164.665  22
672156.703  164378.683  3169.866  22
672160.051  164389.791  3168.576  22
672153.471  164395.793  3174.135  22
672161.227  164406.663  3169.324  22
672161.448  164413.396  3169.228  22
672153.428  164423.786  3172.673  22
672139.380  164434.831  3178.402  22
672130.157  164428.779  3187.920  22
672118.400  164436.264  3191.561  22
672105.178  164441.718  3198.576  22
672098.316  164457.652  3196.891  22
672086.053  164473.848  3197.500  22
672071.319  164497.813  3192.800  22
672057.347  164502.186  3194.866  22
672051.433  164515.380  3189.286  22
672050.030  164525.327  3193.324  22
672053.339  164539.103  3187.377  22
672044.625  164553.671  3183.403  22
672035.980  164563.032  3181.306  22
672017.661  164577.597  3177.599  22
672008.646  164589.432  3186.712  22
671998.328  164598.688  3198.315  22
671995.206  164609.948  3200.559  22
671986.864  164625.443  3200.952  22
671982.133  164635.568  3193.824  22
671972.154  164644.242  3197.427  22
671961.602  164661.321  3202.669  22
671955.962  164666.737  3200.011  22
671949.733  164672.632  3204.454  22
671943.404  164680.115  3211.715  22
671926.813  164691.171  3225.283  22
671921.091  164702.008  3229.607  22
671923.820  164712.689  3225.799  22
671920.936  164724.266  3226.302  22
671912.569  164726.494  3230.414  22
671906.698  164728.751  3232.100  22
671899.609  164738.038  3225.831  22
671891.979  164746.343  3229.617  22
671888.296  164754.208  3229.457  22
671879.928  164758.504  3233.020  22
671872.012  164763.130  3241.864  22
671863.421  164768.919  3250.390  22
671857.160  164778.043  3255.762  22
671851.748  164784.636  3257.588  22
671839.136  164802.963  3267.797  22
671828.675  164819.273  3274.480  22
671823.642  164823.952  3277.798  22
671820.347  164832.487  3276.562  22
671815.406  164845.269  3273.498  22
671815.438  164850.224  3267.614  22
671805.336  164862.895  3257.902  22
671795.787  164874.310  3256.554  22
671793.567  164879.467  3258.560  22
671787.085  164886.639  3266.916  22
671779.856  164904.961  3287.257  22
671770.674  164911.919  3298.767  22
671766.827  164921.023  3307.498  22
671760.285  164929.138  3318.821  22
671752.519  164936.186  3328.199  22
671753.839  164948.027  3324.302  22
671747.763  164958.325  3329.796  22
671735.458  164977.232  3345.179  22
671722.928  164983.333  3356.271  22
671720.163  165012.145  3357.640  22
671725.053  165023.393  3357.793  22
671735.897  165022.182  3345.430  22
671749.309  165011.657  3331.199  22
671756.026  165015.785  3326.947  22
671770.374  165024.572  3314.637  22
671774.083  165033.377  3315.989  22
671778.119  165045.864  3321.672  22
671780.730  165057.054  3331.576  22
671765.031  165065.582  3347.715  22
671766.366  165075.831  3353.463  22
671783.264  165079.697  3345.080  22
671804.296  165084.254  3336.108  22
671817.390  165091.756  3330.095  22
671835.147  165099.767  3322.810  22
671859.442  165109.267  3313.960  22
671879.606  165113.253  3308.929  22
671896.093  165117.480  3302.734  22
671907.538  165120.398  3304.077  22
671925.415  165128.547  3306.938  22
671938.261  165133.836  3306.161  22
671962.571  165135.585  3306.570  22
671981.432  165140.436  3303.724  22
671997.910  165142.767  3300.297  22
672012.028  165144.950  3296.413  22
672025.178  165143.367  3289.423  22
672034.926  165141.097  3283.879  22
672050.880  165140.122  3267.716  22
672062.293  165142.177  3258.022  22
672065.925  165145.378  3254.290  22
672066.395  165153.634  3252.344  22
672075.301  165165.394  3240.935  22
672080.289  165181.903  3231.219  22
672223.066  165356.730  3142.980  22
672248.006  165378.546  3136.307  22
672258.491  165385.065  3136.021  22
672276.288  165401.994  3133.392  22
672286.167  165415.409  3130.701  22
672303.343  165424.418  3110.508  22
672321.074  165434.882  3092.817  22
672327.444  165440.409  3085.634  22
672343.294  165458.853  3078.532  22
672370.121  165471.226  3066.766  22
672386.207  165480.467  3057.541  22
672392.481  165495.033  3050.096  22
672397.774  165516.945  3047.954  22
672395.772  165540.508  3049.083  22
672395.022  165567.422  3050.475  22
672389.864  165589.106  3052.454  22
672386.167  165611.527  3055.424  22
672378.936  165635.363  3061.069  22
672375.365  165651.677  3065.642  22
672365.617  165664.198  3073.297  22
672374.826  165680.715  3087.038  22
672395.387  165713.238  3097.884  22
672408.493  165736.246  3102.366  22
672430.975  165752.652  3111.372  22
672449.655  165767.872  3123.058  22
672465.024  165782.322  3129.340  22
672474.564  165792.227  3134.732  22
672487.123  165805.466  3143.584  22
672502.527  165811.176  3147.365  22
672517.022  165816.268  3146.498  22
672538.547  165821.890  3143.233  22
672546.398  165821.007  3138.329  22
672551.628  165828.228  3142.287  22
672564.992  165832.818  3142.683  22
672588.025  165830.911  3130.842  22
672604.194  165835.420  3120.354  22
672609.301  165841.169  3123.390  22
672617.047  165845.362  3121.246  22
672623.341  165848.687  3118.752  22
672626.733  165859.109  3122.745  22
672634.246  165863.589  3118.496  22
672638.392  165862.041  3113.870  22
672641.844  165873.543  3123.312  22
672654.692  165876.076  3112.360  22
672674.913  165881.874  3103.090  22
672690.916  165890.378  3094.461  22
672702.003  165899.648  3088.793  22
672702.297  165912.071  3093.428  22
672703.515  165933.726  3093.322  22
672703.580  165956.601  3095.149  22
672703.982  165979.582  3100.291  22
672704.435  165999.036  3102.392  22
672694.595  166017.796  3117.794  22
672694.182  166027.763  3120.584  22
672701.374  166049.622  3116.675  22
672713.094  166067.977  3108.301  22
672730.401  166098.141  3102.522  22
672741.444  166123.819  3104.643  22
672752.876  166145.386  3099.450  22
672762.259  166167.340  3098.441  22
672766.808  166182.616  3102.872  22
672771.091  166195.290  3106.893  22
672785.469  166212.478  3106.792  22
672805.712  166232.275  3103.626  22
672826.666  166261.291  3104.821  22
672842.112  166277.943  3097.176  22
672854.191  166293.348  3101.972  22
672862.353  166301.874  3099.771  22
672872.714  166314.458  3100.645  22
672883.932  166326.450  3103.034  22
672891.701  166343.954  3112.101  22
672905.782  166350.139  3115.385  22
672923.071  166360.102  3130.281  22
672960.570  166390.377  3128.471  22
672975.582  166401.618  3134.457  22
672999.568  166412.607  3155.522  22
673019.390  166419.284  3175.477  22
673048.068  166420.748  3187.311  22
673061.166  166407.017  3178.100  22
673078.919  166392.545  3175.717  22
673087.969  166376.749  3171.008  22
673095.031  166360.397  3170.005  22
673099.489  166357.319  3171.965  22
673112.454  166364.124  3186.298  22
673124.488  166372.722  3198.948  22
673130.616  166367.078  3197.841  22
673114.348  166349.126  3176.282  22
673103.348  166332.323  3162.390  22
673100.289  166318.003  3155.019  22
673106.765  166301.356  3154.512  22
673111.790  166287.245  3153.144  22
673118.979  166266.809  3151.534  22
673116.482  166249.725  3142.748  22
673106.348  166229.446  3130.642  22
673100.129  166211.265  3119.274  22
673097.392  166196.621  3115.040  22
673096.365  166186.263  3109.099  22
673099.977  166176.800  3109.587  22
673109.166  166162.219  3110.254  22
673112.194  166146.301  3107.511  22
673122.463  166156.252  3118.977  22
673131.987  166166.415  3128.939  22
673132.720  166187.565  3136.942  22
673141.397  166211.155  3148.025  22
673142.299  166237.140  3161.885  22
673150.218  166250.905  3167.062  22
673148.030  166278.074  3174.931  22
673140.931  166300.496  3183.181  22
673142.746  166323.610  3196.553  22
673143.919  166345.306  3204.745  22
673143.921  166369.856  3213.105  22
673146.397  166392.064  3222.756  22
673169.751  166426.056  3238.298  22
673181.572  166455.098  3246.066  22
673189.817  166478.704  3252.167  22
673198.736  166500.500  3256.435  22
673209.292  166530.497  3261.119  22
673214.894  166556.391  3263.335  22
673218.399  166572.258  3265.470  22
673221.352  166592.599  3264.516  22
673228.160  166611.889  3267.044  22
673232.625  166627.328  3269.998  22
673236.894  166661.103  3281.591  22
673221.410  166657.985  3285.309  22
673234.402  166674.128  3284.211  22
673239.660  166691.339  3282.294  22
673248.169  166710.304  3280.386  22
673246.214  166727.152  3289.078  22
673252.690  166747.627  3295.812  22
673262.006  166767.460  3296.906  22
673271.344  166789.018  3297.617  22
673280.968  166807.363  3300.757  22
673288.209  166829.393  3308.222  22
673293.531  166842.129  3308.678  22
673304.575  166857.031  3301.360  22
673326.445  166890.353  3293.660  22
673336.265  166909.701  3287.692  22
673369.012  166948.525  3277.874  22
673436.261  167036.016  3286.796  22
673463.304  167074.786  3291.477  22
673518.432  167154.974  3307.434  22
673568.452  167225.197  3323.255  22
673598.684  167348.240  3378.329  22
673620.558  167356.624  3381.387  22
673649.425  167364.755  3383.809  22
673676.780  167372.964  3390.140  22
673687.055  167374.638  3392.897  22
673676.913  167401.916  3413.464  22
673699.706  167403.164  3420.732  22
673736.435  167412.302  3410.157  22
673782.752  167412.734  3400.363  22
673809.816  167411.794  3396.701  22
673834.401  167421.596  3391.155  22
673852.329  167424.178  3387.387  22
673883.996  167432.311  3380.720  22
673894.980  167436.442  3380.302  22
673921.492  167394.593  3406.710  22
673939.510  167398.516  3409.716  22
673980.605  167392.894  3419.289  22
674154.309  167426.033  3449.471  22
674237.552  167437.295  3472.232  22
674277.031  167437.560  3480.236  22
674311.258  167428.107  3484.005  22
674348.463  167390.242  3490.059  22
674377.106  167356.364  3498.997  22
674395.196  167330.788  3507.686  22
674413.830  167313.774  3512.858  22
674455.429  167307.667  3517.276  22
674501.800  167312.065  3522.351  22
674576.754  167291.153  3525.655  22
674595.953  167289.249  3526.688  22
674609.012  167293.250  3528.678  22
674677.187  167284.364  3524.770  22
674710.399  167280.146  3523.178  22
674750.152  167284.303  3524.358  22
674767.571  167283.322  3525.944  22
674793.502  167295.017  3532.039  22
674821.902  167300.276  3536.321  22
674848.258  167296.880  3539.855  22
674878.582  167293.386  3543.315  22
674895.994  167284.910  3543.369  22
674925.791  167279.141  3544.878  22
674942.319  167272.826  3544.280  22
674952.487  167265.608  3543.657  22
674969.810  167252.581  3545.263  22
674976.263  167244.147  3546.025  22
674986.783  167226.876  3544.486  22
674997.126  167212.522  3539.876  22
675003.788  167199.236  3534.707  22
675010.131  167178.439  3532.608  22
675016.523  167167.462  3533.877  22
675019.144  167154.791  3534.995  22
675019.975  167139.687  3533.734  22
675022.368  167124.377  3529.077  22
675025.755  167104.046  3530.837  22
675030.224  167092.134  3531.555  22
675028.784  167064.794  3534.762  22
675031.298  167041.828  3540.103  22
675034.500  167015.330  3545.227  22
675032.479  166997.556  3544.324  22
675033.871  166978.181  3542.069  22
675064.356  166957.558  3552.318  22
675081.807  166959.436  3558.664  22
675093.027  166960.418  3561.532  22
675101.300  166942.580  3559.232  22
675137.800  166905.834  3565.858  22
675145.340  166887.306  3568.989  22
675144.426  166866.198  3567.790  22
675148.578  166850.994  3569.082  22
675158.749  166842.312  3575.133  22
675171.258  166840.489  3579.276  22
675190.615  166842.181  3581.679  22
675190.439  166828.781  3583.735  22
675199.246  166821.997  3584.741  22
675210.186  166816.246  3586.236  22
675205.968  166791.407  3587.212  22
675219.387  166783.827  3588.285  22
675233.795  166779.105  3590.161  22
675249.575  166773.045  3592.456  22
675256.192  166770.433  3594.544  22
675266.235  166761.012  3599.359  22
675274.722  166741.766  3597.076  22
675280.456  166726.745  3591.851  22
675267.514  166676.836  3580.494  22
675255.129  166611.376  3572.184  22
675221.738  166567.846  3567.903  22
675215.243  166543.644  3569.681  22
675231.857  166525.279  3573.968  22
675244.281  166522.030  3575.463  22
675230.855  166471.575  3583.227  22
675214.083  166421.649  3590.910  22
675203.591  166374.645  3597.603  22
675190.655  166352.290  3594.737  22
675163.912  166329.011  3585.788  22
675139.021  166306.447  3573.733  22
675103.214  166245.980  3549.533  22
675104.814  166205.436  3542.314  22
675126.019  166168.191  3543.849  22
675159.468  166108.657  3546.223  22
675206.526  165957.602  3526.619  22
675189.576  165924.069  3519.144  22
675191.438  165905.454  3513.781  22
675218.539  165891.644  3513.751  22
675213.606  165864.393  3509.497  22
675185.637  165826.574  3504.210  22
675161.229  165784.709  3499.865  22
675164.004  165747.508  3505.742  22
675143.084  165718.383  3504.666  22
675137.372  165692.635  3505.449  22
675123.139  165654.057  3509.870  22
675125.177  165619.782  3520.706  22
675118.166  165599.122  3522.536  22
675122.875  165558.422  3528.882  22
675125.843  165544.998  3531.882  22
675125.823  165527.603  3531.137  22
675111.810  165502.428  3525.968  22
675089.753  165483.523  3516.989  22
675076.635  165469.122  3514.458  22
675058.681  165443.621  3513.820  22
675037.843  165411.014  3518.347  22
675010.344  165367.583  3519.198  22
674982.538  165314.318  3515.074  22
674958.112  165277.704  3505.685  22
674936.104  165225.813  3500.542  22
674903.328  165214.460  3479.712  22
674848.886  165196.338  3433.562  22
674850.900  165190.433  3430.199  22
674857.277  165184.877  3426.590  22
674867.807  165174.353  3421.778  22
674885.744  165169.881  3421.994  22
674916.108  165165.633  3425.460  22
674943.600  165159.916  3428.887  22
674963.576  165150.426  3427.613  22
674970.883  165146.308  3428.621  22
674987.271  165126.930  3420.904  22
675000.133  165117.256  3420.724  22
675015.985  165100.114  3416.849  22
675036.684  165077.557  3411.260  22
675041.733  165063.647  3408.826  22
675041.543  165049.402  3405.400  22
675038.794  165029.053  3401.887  22
675035.543  165007.310  3390.720  22
675030.149  164978.382  3385.121  22
675022.587  164958.175  3374.069  22
675022.635  164928.478  3374.151  22
675005.035  164919.453  3361.643  22
674994.264  164893.981  3349.173  22
674986.272  164868.801  3343.188  22
674977.623  164844.113  3333.626  22
674970.011  164824.377  3328.894  22
674955.038  164774.685  3309.284  22
674937.064  164738.339  3283.558  22
674940.796  164732.851  3281.111  22
674942.354  164727.481  3278.513  22
674956.147  164734.463  3278.104  22
674979.479  164747.376  3282.300  22
675007.428  164753.770  3294.807  22
675021.699  164752.501  3299.271  22
675047.926  164754.304  3315.148  22
675069.811  164737.752  3314.782  22
675083.884  164726.432  3317.884  22
675092.959  164710.826  3316.379  22
675096.126  164688.893  3316.963  22
675101.881  164688.027  3320.837  22
675100.005  164672.957  3317.630  22
675093.952  164654.422  3310.931  22
675094.148  164627.854  3307.995  22
675085.693  164606.256  3302.842  22
675076.020  164587.212  3295.671  22
675070.153  164564.849  3291.144  22
675063.784  164548.918  3290.054  22
675056.263  164524.608  3287.384  22
675044.699  164505.452  3283.725  22
675019.388  164497.390  3263.476  22
675005.070  164497.054  3248.730  22
674985.364  164475.140  3237.273  22
674962.298  164425.116  3221.553  22
674956.274  164409.611  3217.077  22
674956.284  164387.692  3215.811  22
674948.765  164374.062  3215.118  22
674930.838  164351.686  3212.043  22
674905.970  164331.997  3195.991  22
674877.552  164307.828  3173.793  22
674852.711  164289.525  3149.546  22
674827.581  164265.745  3129.343  22
674814.246  164246.575  3116.442  22
674804.621  164217.592  3099.963  22
674794.422  164185.435  3090.649  22
674793.083  164158.662  3089.276  22
674794.730  164132.678  3082.983  22
674799.547  164119.737  3083.761  22
674835.077  164107.471  3103.127  22
674827.624  164078.802  3093.292  22
674833.432  164049.840  3088.896  22
674842.400  164017.966  3086.879  22
674849.475  163997.524  3081.827  22
674858.454  163977.066  3085.624  22
674868.292  163964.480  3092.109  22
674886.996  163958.056  3101.692  22
674906.453  163961.742  3112.969  22
674922.343  163955.758  3120.544  22
674934.649  163946.026  3125.928  22
674944.115  163936.989  3130.211  22
674954.845  163921.687  3134.281  22
674964.744  163910.577  3139.949  22
674977.509  163898.126  3145.609  22
674990.230  163882.384  3153.596  22
675006.402  163878.245  3166.279  22
675028.139  163873.394  3183.129  22
675045.970  163860.869  3196.638  22
675056.319  163846.305  3204.775  22
675065.322  163839.209  3212.077  22
675085.508  163840.896  3226.753  22
675107.894  163828.633  3244.825  22
675115.175  163802.938  3249.760  22
675117.393  163781.813  3255.236  22
675117.794  163758.638  3258.390  22
675121.864  163744.582  3265.936  22
675129.160  163734.799  3273.201  22
675124.592  163719.014  3274.791  22
675112.019  163699.578  3272.493  22
675097.859  163668.908  3273.029  22
675048.812  163644.389  3252.069  22
675006.163  163612.456  3232.899  22
674974.472  163588.160  3214.476  22
674967.141  163583.456  3210.271  22
674969.142  163560.276  3208.091  22
674988.867  163561.007  3220.944  22
675030.579  163556.567  3246.643  22
675063.772  163552.962  3260.656  22
675078.843  163545.724  3266.802  22
675085.469  163523.376  3260.843  22
675092.955  163506.436  3264.267  22
675092.084  163490.434  3257.841  22
675076.065  163456.888  3240.406  22
675065.351  163437.042  3231.119  22
675057.819  163413.251  3224.365  22
675048.725  163390.332  3219.828  22
675046.492  163372.069  3219.492  22
675042.645  163353.118  3225.849  22
675049.466  163341.685  3232.431  22
675067.142  163331.046  3249.151  22
675080.246  163319.063  3261.894  22
675085.140  163306.217  3267.218  22
675090.309  163294.049  3275.738  22
675091.754  163277.814  3282.515  22
675086.423  163253.648  3286.420  22
675064.391  163227.945  3288.252  22
675025.201  163208.784  3285.773  22
674998.872  163205.068  3276.810  22
674975.389  163214.189  3257.714  22
674959.225  163229.786  3237.298  22
674954.027  163251.290  3223.970  22
674947.624  163259.567  3216.307  22
674906.322  163255.576  3186.508  22
674890.181  163248.304  3176.200  22
674869.479  163231.344  3173.249  22
674839.614  163215.194  3164.934  22
674813.893  163203.630  3149.169  22
674796.383  163195.393  3141.534  22
674768.925  163175.259  3139.502  22
674754.494  163159.519  3142.443  22
674734.934  163150.634  3130.523  22
674685.932  163129.795  3113.740  22
674667.727  163128.186  3098.234  22
674641.731  163114.301  3084.078  22
674615.675  163114.160  3063.868  22
674564.071  163125.516  3023.932  22
674532.034  163116.056  3000.001  22
674534.931  163095.045  3005.331  22
674555.721  163081.923  3024.770  22
674577.424  163072.053  3040.971  22
674598.765  163050.385  3060.917  22
674595.078  163021.679  3063.184  22
674600.339  162994.216  3079.911  22
674596.706  162973.644  3087.922  22
674583.986  162940.790  3090.902  22
674565.737  162937.533  3082.654  22
674551.394  162931.661  3069.549  22
674525.270  162916.120  3061.955  22
674480.403  162898.309  3056.300  22
674459.448  162914.656  3034.402  22
674437.198  162924.382  3016.606  22
674402.004  162929.333  2992.028  22
674371.399  162933.816  2968.230  22
674344.138  162910.979  2966.327  22
674328.339  162912.389  2956.341  22
674289.299  162908.679  2934.070  22
674262.147  162905.395  2921.861  22
674245.916  162891.975  2916.860  22
674235.485  162868.613  2916.975  22
674232.366  162845.199  2922.446  22
674260.416  162813.148  2953.229  22
674281.289  162793.335  2971.311  22
674293.507  162758.986  2983.590  22
674306.440  162743.369  2994.611  22
674336.370  162717.723  3024.067  22
674353.200  162703.511  3040.139  22
674361.829  162683.187  3047.039  22
674367.100  162671.629  3049.614  22
674378.930  162659.601  3059.763  22
674394.881  162645.494  3072.832  22
674414.845  162618.109  3092.711  22
674427.502  162611.561  3104.891  22
674451.467  162597.472  3125.375  22
674462.377  162583.810  3133.329  22
674455.055  162558.346  3131.984  22
674435.930  162534.031  3128.891  22
674413.364  162510.191  3129.061  22
674379.662  162477.050  3120.995  22
674357.854  162463.017  3118.399  22
674337.126  162455.537  3104.855  22
674299.825  162447.519  3082.470  22
674268.836  162440.300  3068.486  22
674231.959  162424.445  3052.097  22
674205.696  162416.177  3043.014  22
674172.653  162405.317  3038.791  22
674146.423  162377.197  3042.245  22
674125.152  162354.432  3047.502  22
674095.240  162337.638  3044.925  22
674064.352  162311.747  3039.134  22
674041.442  162310.927  3024.697  22
674023.809  162302.278  3015.907  22
673987.295  162305.198  2987.238  22
673940.558  162348.658  2941.424  22
673924.646  162417.827  2911.463  22
673915.856  162448.708  2897.312  22
673924.587  162499.106  2887.752  22
673917.806  162510.949  2880.133  22
673895.765  162500.832  2871.362  22
673873.103  162512.138  2857.369  22
673840.805  162502.933  2844.466  22
673814.908  162517.558  2828.239  22
673787.049  162501.675  2818.197  22
673755.245  162488.890  2807.547  22
673720.789  162472.735  2795.852  22
673674.788  162454.988  2779.847  22
673638.184  162432.838  2768.086  22
673600.044  162410.494  2755.510  22
673573.666  162380.796  2748.946  22
673546.836  162354.335  2742.867  22
673517.662  162326.190  2739.229  22
673477.466  162296.085  2728.438  22
673451.130  162266.739  2723.434  22
673427.394  162234.991  2719.838  22
673413.714  162200.137  2720.247  22
673383.230  162170.005  2713.369  22
673360.298  162169.356  2708.190  22
673337.048  162157.134  2704.456  22
673306.896  162136.408  2700.037  22
673303.855  162131.645  2699.264  22
673298.457  162112.580  2696.466  22
673274.003  162114.382  2694.479  22
673249.996  162101.631  2688.419  22
673226.972  162093.123  2679.708  22
673209.525  162100.191  2676.859  22
673182.101  162081.198  2667.407  22
673149.182  162053.186  2648.823  22
673129.749  162037.849  2640.701  22
673115.784  162020.387  2630.709  22
673107.972  161989.528  2616.754  22
673108.046  161980.000  2613.028  22
673111.788  161945.836  2601.470  22
673124.738  161924.585  2593.058  22
673117.768  161899.079  2588.827  22
673097.739  161846.514  2589.623  22
673044.934  161737.298  2594.306  22
673019.740  161697.519  2596.037  22
672992.878  161661.689  2597.387  22
672961.530  161655.942  2588.699  22
672935.330  161634.807  2588.407  22
672902.746  161623.744  2582.440  22
672885.955  161610.823  2576.913  22
672867.577  161590.201  2567.584  22
672875.184  161568.708  2564.216  22
672886.654  161544.062  2559.257  22
672871.415  161496.483  2545.436  22
672852.497  161446.790  2537.650  22
672828.459  161403.341  2529.185  22
672800.864  161358.879  2520.404  22
672790.710  161313.937  2513.855  22
672767.580  161258.812  2509.894  22
672745.714  161188.500  2505.484  22
672735.981  161132.296  2500.541  22
672722.621  161072.556  2496.577  22
672722.691  161026.264  2493.502  22
672721.243  160963.480  2485.323  22
672728.553  160929.550  2480.868  22
672734.343  160875.356  2467.226  22
672741.478  160830.783  2454.299  22
672752.630  160794.912  2445.411  22
672758.351  160746.431  2436.857  22
672772.500  160705.001  2428.167  22
672775.348  160680.347  2424.473  22
672770.677  160664.452  2414.740  22
672781.183  160644.366  2409.035  22
672796.638  160634.532  2407.841  22
672816.730  160631.917  2403.374  22
672824.526  160602.384  2397.486  22
672838.881  160564.491  2387.328  22
672848.468  160545.503  2381.587  22
672871.103  160534.063  2376.622  22
672882.709  160512.816  2372.628  22
672904.656  160486.549  2368.788  22
672902.925  160464.523  2367.824  22
672908.480  160425.950  2366.111  22
672938.064  160398.916  2363.562  22
672961.669  160378.061  2359.780  22
672975.624  160349.525  2356.510  22
672985.047  160319.808  2353.202  22
672998.163  160288.304  2349.314  22
673011.051  160259.633  2347.394  22
673022.949  160234.347  2344.716  22
673032.199  160207.383  2344.245  22
673048.239  160183.966  2342.176  22
673073.959  160159.391  2334.776  22
673087.061  160135.906  2329.254  22
673103.701  160114.603  2328.867  22
673125.328  160103.945  2328.437  22
673127.366  160072.643  2327.282  22
673127.258  160033.612  2329.557  22
673120.868  160003.843  2332.222  22
673118.003  159964.333  2332.210  22
673112.685  159930.539  2330.827  22
673108.650  159892.398  2326.394  22
673109.211  159851.154  2325.049  22
673112.076  159820.173  2324.347  22
673113.185  159773.262  2321.224  22
673110.566  159739.638  2319.957  22
673118.875  159705.389  2321.181  22
673114.127  159666.348  2322.711  22
673109.341  159626.786  2322.825  22
673081.174  159557.021  2316.090  22
673069.575  159517.905  2314.667  22
673044.879  159483.741  2311.292  22
673029.508  159449.019  2311.070  22
673005.465  159432.468  2308.710  22
672985.987  159398.314  2307.620  22
672951.433  159368.583  2304.341  22
672911.628  159338.277  2300.861  22
672884.057  159322.090  2295.591  22
672857.533  159299.271  2289.880  22
672833.250  159269.026  2283.824  22
672822.321  159244.550  2284.973  22
672789.648  159208.955  2274.688  22
672737.216  159179.462  2262.840  22
672698.915  159160.380  2253.919  22
672677.033  159139.588  2248.473  22
672652.121  159119.852  2241.757  22
672635.660  159107.585  2237.600  22
672595.308  159098.060  2234.329  22
672572.734  159094.973  2231.173  22
672543.494  159092.603  2224.197  22
672521.243  159091.142  2221.716  22
672498.308  159083.578  2216.980  22
672473.126  159082.103  2215.671  22
672449.596  159086.992  2211.314  22
672440.947  159088.173  2209.533  22
672431.947  159110.800  2208.867  22
672383.626  159113.258  2209.191  22
672369.139  159121.574  2209.206  22
672356.835  159120.302  2209.206  22
672318.937  159121.528  2209.206  22
672280.651  159119.958  2209.221  22
672241.700  159113.927  2209.221  22
672226.654  159106.406  2209.221  22
672208.606  159116.376  2218.520  23
674715.129  165201.372  3375.587  21
674665.797  165179.662  3348.913  22
674626.625  165184.098  3323.566  22
674596.533  165181.722  3302.590  22
674563.563  165129.238  3270.485  22
674543.330  165101.495  3248.511  22
674518.991  165104.006  3235.657  22
674492.965  165084.377  3210.765  22
674493.367  165027.993  3182.934  22
674505.741  164966.942  3165.635  22
674481.571  164891.097  3138.977  22
674452.082  164839.497  3114.093  22
674435.874  164799.837  3098.704  22
674403.808  164752.743  3074.885  22
674397.318  164739.461  3068.487  22
674426.180  164763.814  3088.936  22
674510.598  164907.880  3160.062  22
674530.982  164951.392  3183.714  22
674538.008  165013.531  3213.380  22
674558.279  165063.667  3238.754  22
674580.930  165091.287  3269.719  22
674605.967  165114.736  3295.634  22
674630.497  165131.870  3316.647  22
674655.387  165144.116  3327.405  22
674675.098  165165.802  3350.470  22
674695.847  165179.710  3362.051  22
674710.203  165189.385  3374.017  22
674715.129  165201.372  3375.587  23
672208.606  159116.376  2218.520  20
671855.583  162743.825  2627.820  21
671786.959  162797.362  2681.425  22
671768.228  162861.424  2695.998  22
671730.194  162891.599  2710.566  22
671705.830  162912.114  2721.118  22
671704.424  162945.229  2720.285  22
671706.663  162988.027  2722.738  22
671715.506  163017.407  2719.921  22
671720.021  163049.592  2716.248  22
671720.202  163073.382  2717.042  22
671704.431  163093.581  2719.833  22
671701.226  163120.887  2735.860  22
671706.337  163139.975  2741.605  22
671702.711  163153.295  2745.205  22
671688.747  163175.427  2758.598  22
671678.993  163193.324  2766.290  22
671670.571  163198.046  2771.288  22
671657.445  163208.561  2779.561  22
671638.113  163214.732  2789.106  22
671618.885  163210.572  2799.397  22
671606.822  163208.712  2805.867  22
671596.530  163215.588  2809.727  22
671580.244  163233.254  2817.535  22
671588.240  163264.299  2812.926  22
671566.936  163267.190  2826.707  22
671556.403  163280.726  2829.303  22
671540.462  163292.729  2836.408  22
671542.597  163319.410  2830.184  22
671538.586  163333.953  2832.058  22
671539.044  163353.067  2828.677  22
671537.748  163367.581  2830.415  22
671528.966  163374.431  2834.549  22
671518.158  163402.681  2840.836  22
671523.085  163417.535  2837.291  22
671528.340  163432.626  2834.864  22
671532.117  163446.669  2835.299  22
671537.501  163468.059  2834.409  22
671535.130  163488.228  2837.277  22
671521.782  163505.750  2846.360  22
671511.865  163517.218  2854.735  22
671505.679  163527.046  2860.271  22
671492.848  163537.022  2869.748  22
671506.374  163559.659  2855.653  22
671504.643  163586.204  2858.869  22
671500.752  163600.884  2862.372  22
671488.047  163622.241  2872.813  22
671483.906  163634.277  2877.638  22
671477.281  163647.349  2884.384  22
671464.891  163646.500  2889.074  22
671447.700  163652.214  2896.981  22
671437.224  163661.146  2905.610  22
671425.184  163670.271  2913.924  22
671415.328  163684.629  2928.616  22
671403.976  163694.405  2941.503  22
671390.263  163702.167  2956.652  22
671385.098  163730.415  2946.318  22
671390.424  163747.623  2940.163  22
671380.288  163764.805  2949.862  22
671368.050  163782.489  2947.587  22
671351.868  163794.863  2958.584  22
671333.609  163804.855  2970.504  22
671318.065  163811.673  2981.568  22
671307.301  163825.452  2992.095  22
671306.993  163842.532  2989.631  22
671327.928  163846.292  2976.315  22
671348.209  163848.284  2961.398  22
671355.935  163874.486  2950.843  22
671348.184  163898.982  2957.511  22
671338.504  163929.635  2963.896  22
671336.095  163956.004  2964.466  22
671327.071  163971.410  2973.028  22
671317.738  163991.964  2984.971  22
671311.923  164009.571  2992.394  22
671314.771  164028.375  2996.875  22
671317.564  164039.163  3004.640  22
671309.027  164049.347  3015.333  22
671324.415  164058.628  3006.039  22
671329.481  164066.427  3003.421  22
671345.874  164091.242  3005.708  22
671363.701  164102.025  3003.551  22
671361.299  164121.374  3007.375  22
671359.339  164131.750  3009.363  22
671365.076  164154.284  3017.851  22
671369.790  164168.477  3024.931  22
671368.215  164179.526  3034.787  22
671365.110  164195.294  3049.194  22
671357.995  164200.449  3057.294  22
671365.265  164218.824  3058.507  22
671363.985  164234.372  3061.650  22
671359.747  164241.534  3067.809  22
671352.475  164246.463  3077.112  22
671348.328  164262.979  3082.315  22
671354.430  164278.301  3076.860  22
671359.003  164295.801  3077.682  22
671357.909  164304.858  3078.826  22
671350.378  164318.600  3085.995  22
671343.597  164337.735  3093.165  22
671350.676  164354.502  3090.518  22
671357.192  164370.068  3088.169  22
671355.973  164386.612  3092.982  22
671351.367  164399.779  3096.158  22
671349.574  164417.145  3093.739  22
671350.834  164435.236  3107.030  22
671346.999  164440.918  3110.172  22
671342.506  164454.954  3119.594  22
671349.891  164465.367  3113.006  22
671357.042  164487.998  3101.766  22
671364.169  164511.618  3107.784  22
671369.908  164531.610  3117.424  22
671373.535  164549.089  3129.424  22
671376.497  164571.260  3139.913  22
671397.071  164585.333  3128.729  22
671396.434  164588.348  3129.595  22
671383.465  164594.050  3144.880  22
671382.964  164603.880  3148.289  22
671401.611  164619.674  3140.649  22
671430.673  164641.264  3129.164  22
671440.305  164653.468  3129.699  22
671438.722  164662.750  3135.524  22
671446.716  164685.654  3141.652  22
671448.505  164707.960  3155.512  22
671447.928  164722.049  3164.124  22
671453.853  164735.550  3166.937  22
671464.062  164750.636  3162.439  22
671482.971  164772.048  3163.141  22
671493.945  164782.879  3163.960  22
671499.147  164802.533  3177.088  22
671482.702  164816.225  3208.507  22
671494.563  164848.094  3199.410  22
671501.054  164857.714  3200.823  22
671523.061  164877.916  3203.856  22
671533.475  164873.030  3197.345  22
671539.252  164862.269  3186.084  22
671560.104  164861.587  3179.456  22
671567.705  164851.855  3170.081  22
671574.458  164851.370  3168.257  22
671591.143  164850.532  3167.156  22
671602.196  164840.089  3157.621  22
671619.638  164821.900  3142.802  22
671649.738  164803.803  3127.878  22
671666.830  164800.149  3129.327  22
671682.870  164795.519  3134.993  22
671692.433  164798.026  3140.046  22
671713.612  164809.556  3158.305  22
671726.590  164811.264  3160.401  22
671725.335  164790.588  3149.173  22
671735.276  164778.777  3137.711  22
671749.490  164762.434  3127.645  22
671788.123  164726.657  3119.056  22
671800.823  164722.358  3124.113  22
671821.634  164720.381  3134.295  22
671836.828  164696.653  3125.536  22
671868.808  164680.666  3132.483  22
671878.789  164660.717  3124.782  22
671895.241  164644.398  3125.031  22
671904.367  164640.716  3127.726  22
671912.962  164639.754  3131.702  22
671930.279  164646.023  3149.021  22
671940.633  164636.351  3148.746  22
671944.878  164612.735  3137.298  22
671957.627  164584.446  3129.956  22
671972.915  164568.780  3133.870  22
671976.812  164530.107  3117.535  22
671975.150  164500.917  3104.403  22
671919.626  164482.037  3069.480  22
671874.267  164451.233  3038.726  22
671858.521  164413.196  3020.057  22
671860.872  164376.355  3007.674  22
671884.145  164337.803  3002.387  22
671893.836  164324.597  2999.725  22
671912.145  164298.153  2996.548  22
671924.697  164271.488  2991.045  22
671932.586  164244.977  2985.296  22
671943.199  164208.875  2975.200  22
671964.694  164178.040  2972.079  22
671980.027  164157.941  2969.338  22
672019.191  164108.115  2963.910  22
672082.219  164071.510  2969.929  22
672101.631  164044.669  2966.550  22
672115.581  164008.278  2960.656  22
672122.156  163959.450  2944.843  22
672137.624  163927.299  2938.850  22
672160.875  163888.443  2932.371  22
672166.168  163816.181  2911.611  22
672176.604  163773.864  2899.483  22
672175.285  163761.669  2893.153  22
672194.192  163728.375  2885.764  22
672207.276  163710.921  2882.515  22
672250.610  163717.206  2892.595  22
672268.976  163711.313  2894.830  22
672307.082  163731.671  2910.924  22
672334.801  163732.622  2917.303  22
672390.055  163718.315  2922.900  22
672378.749  163678.988  2901.862  22
672365.257  163635.721  2881.245  22
672364.755  163592.094  2865.619  22
672360.728  163549.001  2849.107  22
672370.079  163483.521  2828.774  22
672395.385  163446.099  2823.119  22
672411.458  163379.960  2809.687  22
672407.241  163335.863  2799.309  22
672380.139  163340.382  2796.522  22
672358.498  163380.898  2800.122  22
672325.059  163405.616  2802.135  22
672306.269  163406.999  2800.343  22
672290.560  163388.564  2795.073  22
672271.646  163395.539  2794.865  22
672269.048  163414.615  2799.300  22
672255.663  163486.151  2819.003  22
672241.159  163517.421  2826.140  22
672197.784  163538.788  2831.744  22
672157.126  163560.728  2835.939  22
672123.173  163569.042  2836.137  22
672107.889  163603.532  2842.921  22
672090.782  163631.307  2850.393  22
672096.346  163668.302  2861.581  22
672089.679  163697.740  2865.304  22
672073.227  163721.596  2868.764  22
672058.514  163715.032  2867.279  22
672041.298  163685.897  2863.490  22
672020.733  163698.100  2863.870  22
671985.278  163701.314  2863.392  22
671966.137  163700.907  2864.293  22
671956.142  163719.176  2866.507  22
671925.961  163713.921  2868.340  22
671919.126  163745.802  2872.387  22
671913.212  163788.128  2879.691  22
671903.164  163818.497  2883.459  22
671856.444  163811.334  2885.396  22
671831.841  163861.124  2895.753  22
671790.669  163868.555  2904.063  22
671745.812  163879.482  2905.305  22
671712.186  163906.298  2904.198  22
671688.061  163886.209  2902.686  22
671675.567  163855.416  2898.326  22
671680.010  163831.426  2892.471  22
671711.220  163797.122  2881.073  22
671720.800  163761.638  2864.337  22
671722.655  163720.714  2850.185  22
671731.944  163681.936  2839.195  22
671746.139  163652.024  2832.135  22
671763.832  163675.463  2848.377  22
671763.649  163675.622  2848.233  22
671778.830  163647.672  2843.682  22
671800.763  163600.371  2826.521  22
671819.319  163573.470  2819.522  22
671829.464  163547.975  2811.383  22
671847.327  163523.009  2805.760  22
671866.827  163492.383  2796.189  22
671868.053  163476.357  2786.200  22
671884.715  163459.493  2781.885  22
671905.770  163446.418  2776.561  22
671943.047  163420.370  2768.150  22
671974.591  163403.836  2768.351  22
671987.313  163372.788  2759.201  22
671987.312  163346.383  2747.906  22
671998.422  163318.758  2740.233  22
671978.975  163232.869  2711.422  22
671999.281  163157.758  2694.428  22
672016.608  163085.889  2677.933  22
672016.599  163043.243  2669.275  22
671976.480  163075.559  2677.073  22
671942.280  162992.493  2662.451  22
671941.925  162913.382  2648.558  22
671942.546  162864.060  2634.112  22
671912.729  162807.571  2625.961  22
671896.958  162764.880  2619.361  22
671901.352  162734.683  2610.930  22
671861.614  162742.558  2625.258  22
671855.583  162743.825  2627.820  23
672208.606  159116.376  2218.520  20
